# .PCD v.7 - Point Cloud Data file format
VERSION .7
FIELDS x y z rgb
SIZE 4 4 4 4
TYPE F F F F
COUNT 1 1 1 1
WIDTH 1223
HEIGHT 1
VIEWPOINT 0 0 0 1 0 0 0
POINTS 1223
DATA ascii
-0.2372977	0.2328821	0.8251382	16711809
0.2173317	0.1215599	1.1246277	16711796
-0.3772035	0.0850284	1.3652995	16711785
0.6665851	0.2264033	0.8063854	16711810
-0.2705131	0.2083601	0.9213529	16711805
1.0743617	0.1668967	1.0454307	16711799
1.1513069	0.1449727	1.1430374	16711795
0.2545269	0.1228403	1.1129314	16711796
0.2661573	0.2411563	0.842523	16711808
0.7895962	0.2208879	0.8561217	16711808
-0.2071843	0.242971	0.8704657	16711807
0.5767175	0.1270578	1.1977986	16711792
1.0311849	-0.0114862	1.629899	16711773
1.0430007	-0.0960789	1.9214032	16711760
1.1444622	-0.1298664	2.0710135	16711753
1.4664023	-0.3100504	2.7111428	16711724
1.0321966	-0.0334473	1.7495681	16711767
-0.285117	-0.0546122	1.8849996	16711761
-0.179674	0.1479932	1.1675038	16711794
0.6167506	0.172111	1.0267199	16711800
0.5897711	0.1574084	1.0534449	16711799
-0.339583	-0.2959609	2.7707517	16711721
0.2718605	-0.1189626	1.088215	16711797
0.4064406	0.154924	1.043527	16711799
0.3900128	0.049247	1.3466718	16711786
-0.7424357	-0.1730328	2.313611	16711742
0.5946653	0.2227165	0.8296193	16711809
0.5377347	0.1519232	1.0849013	16711797
1.126027	0.1538773	1.0488288	16711799
0.2968377	0.1888254	0.9456674	16711804
0.0118981	0.0055685	0.6367101	16711818
-0.4570386	-0.0909647	1.9591758	16711758
0.576768	0.223817	0.8300573	16711809
0.2087234	0.1944817	0.9055305	16711805
-0.4491481	0.0940357	1.3084641	16711787
-0.3042438	-0.1359194	2.1369364	16711750
0.6750664	0.1629235	0.97082	16711802
0.4123028	0.1704355	1.0194894	16711800
1.0546097	0.1826624	0.9914932	16711802
-0.3910142	0.1182213	1.2824749	16711788
-0.2887416	0.2108323	0.9082303	16711805
0.8473077	0.1890026	0.8787611	16711807
0.1870561	0.108766	1.1918681	16711792
0.7474516	0.127803	1.0909863	16711797
1.0686979	0.1861913	1.0099527	16711801
-0.3728125	0.1164049	1.1554351	16711794
0.6314453	0.1746795	0.8984306	16711806
0.0947761	0.1338927	0.6548626	16711817
1.4979371	-0.3120767	2.7705617	16711721
0.7306255	0.2922601	0.6955107	16711815
0.2850474	0.2510055	0.8563793	16711808
0.6488922	0.2633026	0.7425888	16711813
-0.1596551	0.2223034	0.8961058	16711806
0.0574528	0.1773609	1.0406976	16711799
0.2803007	0.2430848	0.8230903	16711809
-0.397051	0.1365288	1.2308933	16711791
0.3543562	0.1576134	1.0399562	16711799
0.1429958	0.1812444	0.9852642	16711802
-0.2727605	0.1641033	1.0647169	16711798
-0.167229	0.1850068	1.0141848	16711801
0.2836384	0.2469529	0.8348507	16711809
-0.2377925	0.1514992	1.1172552	16711796
0.2043835	0.1806758	0.957311	16711803
0.0542431	-0.1303886	1.2553071	16711790
0.0642414	0.1845181	1.0011637	16711801
-0.2172599	0.2244827	0.8613653	16711807
0.1288245	0.1491919	0.7114321	16711814
0.21386	0.2156709	0.8363494	16711809
0.1456152	0.1609788	1.0170619	16711800
0.1130181	0.0894109	1.3021063	16711788
0.5470806	0.2119936	0.9279031	16711804
0.1816843	0.2632551	0.7504963	16711812
-0.7759371	-0.0033006	1.5960784	16711774
0.2469508	0.266964	0.7526379	16711812
0.2808937	0.2061785	0.9398059	16711804
0.0939433	0.1201868	1.1620548	16711794
0.1688496	0.1476656	1.0763278	16711798
0.2732918	0.2285733	0.8503045	16711808
0.4875505	0.2407709	0.8358818	16711809
-0.2408888	0.2354041	0.8773922	16711807
-0.5153818	0.1196307	1.1382807	16711795
-0.5271292	0.1238375	1.1575224	16711794
-0.0997681	0.1593038	1.0243204	16711800
-0.1239683	0.2006922	0.9629893	16711803
0.2560594	0.1346989	1.0905318	16711797
0.7913927	0.1168849	1.1149198	16711796
-0.6910034	-0.1055139	2.0637546	16711753
0.0148531	-0.1269831	0.6027348	16711819
0.0926886	-0.3241699	1.3208548	16711787
0.4653054	0.2131942	0.9139856	16711805
0.3912513	0.1813165	0.9827521	16711802
0.3473148	0.2530714	0.8081659	16711810
0.0119303	0.0058161	0.6362807	16711818
0.2717602	0.1916398	0.9452415	16711804
-0.398426	0.168479	1.1049221	16711796
-0.3683895	0.1233485	1.2567637	16711790
0.0169229	-0.0719459	0.6184555	16711818
-0.6584374	0.0485493	1.3415591	16711786
0.1039331	0.1554486	1.1048703	16711796
0.562705	0.274875	0.7156168	16711814
-0.2576391	0.0652921	1.4378018	16711781
-0.3013972	0.2220965	0.8140894	16711810
0.1460996	0.1808453	0.9892896	16711802
-0.27356	0.2158725	0.726668	16711813
-0.3327579	0.206547	0.8805219	16711807
-0.0212816	0.159444	0.6411076	16711817
0.3351088	0.0169544	1.5867769	16711775
-0.5984526	-0.0374889	1.7700626	16711766
0.2939447	0.2400889	0.8363173	16711809
0.9058131	0.2166542	0.891409	16711806
0.5806329	0.1305211	1.1507914	16711794
0.4699507	0.1702647	1.0271431	16711800
-0.2028597	0.2569365	0.692656	16711815
-0.214273	0.238139	0.7725103	16711811
-0.6038914	0.0522311	1.5162977	16711778
0.5009801	0.1836949	0.9679115	16711803
0.6607549	0.1416609	0.9094735	16711805
-0.203645	0.0494028	1.4561918	16711781
0.2544621	0.1160903	1.155113	16711794
0.0877199	0.0767072	1.2813157	16711788
0.0943806	0.1396202	1.1490333	16711794
0.9756294	0.2117562	0.9111801	16711805
0.5355148	0.2346633	0.7348232	16711813
0.3474612	0.198262	0.9540038	16711803
0.1090431	0.0304364	1.4685152	16711780
0.8187004	0.1545542	1.0681257	16711798
0.4169265	0.1998154	0.9581159	16711803
-0.7962932	-0.2973145	2.8290784	16711719
-0.849585	-0.0311567	1.6173829	16711773
0.8761528	0.1739574	0.9410516	16711804
-0.3539556	0.0597407	1.440361	16711781
-0.5561938	0.020842	1.634326	16711773
-0.1754247	0.1641751	1.1100382	16711796
-0.2156635	0.2322345	0.7583147	16711812
-0.2891586	-0.10144	2.0724199	16711753
0.1021104	0.0129961	1.3261054	16711786
0.27437	0.2401898	0.8654243	16711807
-0.2502331	0.2532882	0.7521317	16711812
-0.0301498	0.1093246	0.6564484	16711817
0.0101393	0.16512	0.6387486	16711817
0.74495	0.1280368	1.0900495	16711797
0.3841546	0.2655005	0.7849526	16711811
0.4238165	0.0171237	1.4286137	16711782
0.3922608	0.0762883	1.2370898	16711790
0.6497507	0.1566545	1.0133741	16711801
-0.3293376	0.1030751	1.3397132	16711786
-0.3714303	0.1809495	0.9277756	16711804
0.0250761	-0.0287936	0.6280471	16711818
0.1559303	0.1971359	0.9713883	16711802
0.4749193	0.1190791	1.1602353	16711794
-0.4252333	0.0732325	1.4274367	16711782
0.2058547	0.020108	1.7152163	16711769
-0.933831	-0.1819256	2.3816466	16711739
0.2089121	0.0607481	1.4349428	16711782
-0.5608732	-0.0150382	1.7121145	16711769
0.8724515	0.0921982	1.1804218	16711793
1.0783759	0.1971173	0.9620376	16711803
-0.6158632	0.0239043	1.6021581	16711774
-0.1239486	0.2016594	0.9664361	16711803
-0.6526859	-0.1197548	2.0867019	16711752
-0.4238037	0.0709005	1.4201542	16711782
-0.3951142	0.1611107	1.1521652	16711794
-0.4372378	0.1095493	1.2500741	16711790
0.6648136	0.2000746	0.8244554	16711809
-0.9026892	-0.2359921	2.4854801	16711734
0.6541682	0.0816578	1.2909836	16711788
0.5089162	0.0301626	1.3663967	16711785
0.4666276	0.1201502	1.1430327	16711795
-0.4847164	0.1729471	1.3130372	16711787
0.7198285	0.184472	0.87138	16711807
-0.3852476	0.1221714	1.1842281	16711793
-0.2492339	0.21741	0.8765243	16711807
0.7137449	0.2217031	0.7662104	16711812
-0.3158086	0.1964508	0.8037041	16711810
-0.2887091	-0.0218739	1.7692876	16711766
0.9012483	0.2086309	0.8949289	16711806
0.4061766	0.0989313	1.1548537	16711794
-0.1841512	0.2422341	0.7899709	16711811
0.8247375	-0.0974771	1.8641826	16711762
0.5401863	0.0062112	1.4575948	16711781
0.6707752	0.1979356	0.8487599	16711808
-0.023266	0.1346255	0.6508839	16711817
0.7451241	0.0707125	1.311025	16711787
0.3507515	0.1166335	1.1309389	16711795
0.4896784	0.2335177	0.8604442	16711807
0.4827484	0.0179823	1.4225677	16711782
0.8436723	0.201388	0.8878642	16711806
-0.5549841	0.0237533	1.6079502	16711774
0.6841429	0.192746	0.9010693	16711806
0.4343762	0.150847	1.0750259	16711798
-0.6619573	0.0502526	1.4645449	16711780
0.6561322	-0.0555577	1.902993	16711760
0.999255	-0.1455522	2.0730519	16711753
-0.6666895	-0.3012605	2.7602921	16711722
0.0020452	-0.199375	0.5989972	16711819
0.0003456	0.0402476	0.6424441	16711817
0.7722898	-0.1572944	2.2891381	16711743
0.7632854	0.0301842	1.512237	16711778
0.3134125	0.1535867	1.0512276	16711799
-0.6318154	0.0357848	1.4741942	16711780
0.6740721	0.1648718	0.989925	16711802
0.3400705	-0.1320238	2.1328523	16711750
0.741116	0.2014184	0.8479061	16711808
0.8571164	0.0884402	1.1774887	16711793
0.3199115	0.2118592	0.9103383	16711805
0.0627756	0.1846921	1.0030334	16711801
0.2717983	0.1730203	0.9749198	16711802
0.6831685	0.012185	1.4587398	16711780
0.7797005	0.0950738	1.1671509	16711794
0.5549238	0.0378923	1.3390478	16711786
-0.4577622	-0.0615553	1.8088036	16711765
0.5344346	0.0957157	1.2274973	16711791
-0.1634293	0.0649364	1.4407967	16711781
0.4748574	0.1199956	1.1594874	16711794
0.801002	0.1785924	0.926019	16711804
-0.8400751	-0.1570989	2.3310657	16711741
0.9487851	0.2033827	0.8861247	16711806
0.4180198	0.0860267	1.2158777	16711791
-0.2460296	0.0853307	1.3239772	16711787
0.6663795	-0.011923	1.5874194	16711775
0.5406005	0.2537469	0.7443205	16711813
0.5096797	0.0692676	1.2726516	16711789
0.2353431	0.099316	1.2316959	16711791
-0.2671894	0.0714261	1.3967535	16711783
0.8065821	0.1985881	0.8341845	16711809
-0.5294707	0.0329573	1.5864068	16711775
-0.2060693	0.2251582	0.889708	16711806
-0.3409707	0.0856268	1.5145938	16711778
-0.4142756	0.1671687	1.2040633	16711792
-0.2431161	0.2321435	0.7826051	16711811
0.5181217	0.2441854	0.8359382	16711809
0.6388376	0.0222982	1.4374548	16711781
0.0056502	0.1348619	0.6507601	16711817
0.2541076	0.2714568	0.743469	16711813
0.6222821	-0.0261384	1.6955258	16711770
0.4994163	0.1454239	1.075182	16711798
0.7270178	0.1335334	1.0677122	16711798
-0.2101902	0.1402807	1.1720546	16711793
0.6316813	0.2616141	0.7717492	16711811
0.2977955	0.2175575	0.8910901	16711806
0.3807431	0.0498149	1.3274299	16711786
0.2855682	0.0633855	1.4162413	16711782
0.002188	-0.1838751	0.6015365	16711819
0.328432	-0.0323912	1.731609	16711768
0.5121349	0.1252461	1.1408288	16711795
0.8574394	0.0722643	1.2681502	16711789
0.4693872	0.1940303	0.9604315	16711803
0.8131598	0.0578027	1.3460894	16711786
0.7523291	0.0455404	1.4064568	16711783
0.6534797	0.191662	0.8709544	16711807
0.1958007	0.2497747	0.7958222	16711810
0.334873	-0.044019	1.7672693	16711767
1.3051995	0.1462959	1.1757382	16711793
0.7813038	0.0889343	1.1908216	16711793
0.5345619	0.1650852	1.0413529	16711799
-0.4122852	0.176301	1.0824797	16711797
-0.6612915	-0.0739946	1.4907722	16711779
-0.4796214	0.0920165	1.3919611	16711783
0.5474375	0.1613095	1.0380296	16711799
0.4216662	0.1957211	0.9638776	16711803
0.7429591	-0.0131177	1.5608606	16711776
-0.1284613	0.1305293	1.2100201	16711792
0.3570135	-0.0906717	1.9707668	16711757
0.3234189	0.1972793	0.9698901	16711803
0.2977513	0.1935966	0.9530796	16711803
0.0001156	-0.0836112	0.6228788	16711818
0.6235222	0.1943607	0.892808	16711806
0.4247018	0.221582	0.9095489	16711805
0.3348359	-0.0437361	1.767525	16711767
-0.1380954	0.1668279	1.1051173	16711796
0.631402	0.1373281	1.1166906	16711796
0.2514277	0.0454125	1.4471991	16711781
1.0251234	0.1633343	1.0578543	16711799
0.5150271	0.146883	1.0814221	16711797
0.8920717	-0.0326683	1.731751	16711768
1.031592	0.1769192	1.0194485	16711800
0.56017	0.2167389	0.8545812	16711808
0.4879116	0.2567012	0.8042483	16711810
-0.3522412	0.206596	0.8435662	16711808
0.7117366	0.0789583	1.3396498	16711786
0.0167319	-0.071737	0.6184186	16711818
0.0294836	-0.2035659	0.585241	16711820
-0.2182307	0.020001	1.5217165	16711778
-0.1640898	0.2510431	0.8040012	16711810
0.3432813	0.1294413	1.065923	16711798
0.0925533	0.2010565	0.9667734	16711803
0.052969	-0.1282051	1.2571748	16711790
0.0947054	0.1317202	0.6489546	16711817
0.7164963	0.1710552	0.9214911	16711805
0.1190749	0.1867351	1.0054939	16711801
-0.1676433	0.2234932	0.8611545	16711807
0.1729102	0.1100073	1.1752501	16711793
0.8974755	0.212419	0.8866588	16711806
0.532177	0.0546826	1.3168933	16711787
0.2960436	0.2165028	0.8887322	16711806
0.1108027	0.1718118	1.0297451	16711800
0.0699247	0.128846	1.1714776	16711793
-0.2579563	0.1321872	1.1475497	16711794
0.5267819	0.0894197	1.2464386	16711790
0.1638218	0.1482209	1.0747017	16711798
0.6626806	0.2840374	0.7644013	16711812
-0.2649134	0.2209162	0.764355	16711812
0.148206	0.0827454	1.3405887	16711786
0.6554828	0.1378183	1.0018089	16711801
0.6202054	0.1850858	0.8620191	16711807
0.500859	0.1799155	0.7468807	16711813
0.113178	0.0370809	1.5533525	16711776
-0.2956069	0.0640649	1.4107143	16711783
1.0195689	0.2057341	0.9660233	16711803
-0.1687525	0.2492512	0.7510849	16711812
0.1133486	0.137839	0.7619671	16711812
0.1355323	0.2004021	0.7603596	16711812
0.0503052	0.1873833	0.9914446	16711802
0.1651835	0.0884772	1.2546309	16711790
-0.4617351	0.0868321	1.3843765	16711784
-0.2901497	0.0714984	1.40865	16711783
-0.2306378	0.1461532	1.081039	16711797
0.2720475	0.0182384	1.5474534	16711776
0.2128058	0.2662812	0.7558267	16711812
0.1950257	0.2083348	0.931811	16711804
0.0294292	-0.2038978	0.5872503	16711820
0.0237499	-0.1529169	0.5993522	16711819
0.0156282	0.1188156	0.6562747	16711817
0.0127165	0.0220987	0.638466	16711817
-0.2231133	0.2549453	0.7069026	16711814
-0.2054183	0.2477735	0.7283462	16711813
0.0279273	-0.1736062	0.5952903	16711819
0.0300422	-0.2028475	0.5840876	16711820
0.0216365	0.0972416	0.65627	16711817
0.4885297	0.2617753	0.8314511	16711809
0.1970568	-0.0064736	1.5452206	16711777
0.1690097	0.2007774	0.9350446	16711804
0.1670191	0.180679	0.9446694	16711804
0.7307018	0.1334384	1.0665369	16711798
0.2951362	0.2754456	0.7492641	16711812
0.411358	0.2267155	0.842663	16711808
-0.6027948	-0.1329419	1.4369189	16711781
0.9985729	0.215282	0.9118777	16711805
-0.4149026	0.1696341	1.1121727	16711796
0.1076396	0.1713024	1.0323609	16711800
0.089544	0.0692855	1.2613012	16711789
0.8745024	0.1968199	0.8739568	16711807
0.2552754	0.1683854	0.9812155	16711802
0.3939804	0.2616003	0.7946599	16711810
0.0595696	0.1980609	0.9883032	16711802
-0.6041121	0.0998096	1.23548	16711791
0.1158454	0.1194116	1.1786579	16711793
0.2539788	0.1159352	1.1479371	16711794
0.5799429	0.259868	0.71119	16711814
0.0938937	0.1544217	1.0982636	16711797
0.2342841	0.223294	0.8533579	16711808
0.2843176	0.2320586	0.8753042	16711807
0.264082	0.2390369	0.8346022	16711809
0.2027866	0.18104	0.9521874	16711803
-0.2821669	0.0349697	1.4383922	16711781
0.507366	0.1929306	0.9607714	16711803
1.1861138	0.1500641	1.0661445	16711798
-0.2113257	0.2463664	0.7700698	16711812
-0.1112294	0.1727429	1.0739547	16711798
0.1429254	0.1694981	1.0322928	16711800
-0.2927036	0.1343947	1.1373399	16711795
-0.4536491	-0.048976	1.8458754	16711763
-0.2016312	0.179089	1.0494105	16711799
-0.4141574	0.1699206	1.1134346	16711796
0.6106465	0.2363656	0.7920619	16711811
0.2161897	0.0467767	1.4955404	16711779
0.3296591	0.203065	0.9452568	16711804
0.6853776	0.2267828	0.7446191	16711813
0.4833228	-0.1474137	2.3968842	16711738
0.1708484	0.1910498	0.9730512	16711802
0.2591002	0.0807953	1.3187268	16711787
0.7264495	0.0431269	1.4526099	16711781
0.4936729	0.2334271	0.8432857	16711808
-0.5663463	0.0697284	1.4706541	16711780
-0.2029821	0.2304526	0.8510001	16711808
0.4522205	0.2258252	0.8602503	16711807
0.5126303	0.1332828	1.1127648	16711796
1.1777279	0.2039708	0.9918796	16711802
0.3524062	-0.1925906	2.2748806	16711744
0.3979434	-0.1645045	2.180218	16711748
1.2348261	0.1012173	1.2197437	16711791
0.2545507	0.1231968	1.1107082	16711796
-0.4917691	0.1468582	1.2047194	16711792
0.3424188	0.2454776	0.8316073	16711809
-0.5035985	-0.1486702	1.9419893	16711759
0.6634277	-0.0749968	1.8908271	16711761
0.2123864	0.2287354	0.834598	16711809
0.5436091	0.1690691	1.0292293	16711800
0.2749323	0.1364339	1.0459043	16711799
0.5709148	0.1554057	1.0435693	16711799
-0.2462878	0.0602376	1.3877903	16711784
0.5267934	-0.0273144	1.5969237	16711774
0.6934494	0.1395937	1.0483817	16711799
-0.3841588	0.1312482	1.2053764	16711792
0.1081669	0.1289629	1.1312164	16711795
0.2003122	0.1621838	1.0198312	16711800
0.8329066	0.0634046	1.2876307	16711788
0.4545207	0.1031874	1.2312434	16711791
1.0184876	0.1743381	0.9930878	16711801
0.2873061	0.1575896	1.0064125	16711801
0.6436679	0.2270317	0.8246061	16711809
0.1535066	0.1628765	1.0447234	16711799
0.5668675	0.1914185	0.9683757	16711803
0.4959341	0.1695026	1.0041041	16711801
-0.4587318	0.1507235	1.1601386	16711794
0.6839649	0.1480622	1.0360794	16711800
0.0146386	0.0493248	0.646401	16711817
1.083128	-0.1734349	2.1662409	16711749
0.0310879	-0.4868625	2.1556997	16711749
0.5839457	0.1495608	1.0701458	16711798
0.388594	0.1398209	1.2092844	16711792
-0.2584545	0.2251059	0.8913019	16711806
1.1767744	-0.1616838	2.2218251	16711746
0.7531055	0.0653255	1.335767	16711786
1.4870018	0.1108712	1.4209208	16711782
0.007649	0.0121241	0.6394348	16711817
0.236745	0.2593499	0.7752908	16711811
1.2907605	0.0848299	1.3808906	16711784
0.3805294	0.245475	0.8252917	16711809
0.7372364	0.1890033	0.8772062	16711807
0.2007648	0.1762909	0.9831173	16711802
0.5042659	0.2205688	0.8857923	16711806
-0.4358751	0.0757542	1.4490799	16711781
0.5827301	0.1857269	1.007223	16711801
-0.4293313	0.0715793	1.4340398	16711782
0.4080602	-0.1672332	2.2484229	16711745
0.5277475	-0.2580629	2.5497987	16711731
0.6917139	0.1502942	0.9933931	16711801
0.8229848	-0.0134917	1.6172694	16711773
0.4101135	0.1667348	1.0111539	16711801
1.5091361	0.1031474	1.3401325	16711786
0.5709488	0.1895464	0.9640102	16711803
0.547026	0.176444	1.0205805	16711800
0.4001631	0.2005594	0.911895	16711805
0.7440093	0.1200436	1.1537856	16711794
1.0935357	-0.0641235	1.8492779	16711763
0.4821582	0.2625789	0.7756706	16711811
-0.8294981	-0.1447218	2.2451916	16711745
0.5172827	-0.0755929	1.9569322	16711758
-0.0470159	0.1373101	0.6557756	16711817
0.3269053	-0.5488481	3.65083	16711682
0.8920156	-0.0735986	1.8097477	16711765
0.1808053	-0.0445746	1.7521029	16711767
0.7260798	0.0867843	1.2857546	16711788
0.351162	0.1554375	1.0303587	16711800
0.677808	0.1610503	1.0181956	16711800
1.6484385	-0.3096865	2.8414781	16711718
-0.2292351	0.1435698	1.1561457	16711794
0.9689811	-0.2484331	2.6559746	16711726
0.3115879	0.0919296	1.14077	16711795
-0.4336525	0.1874874	1.1103947	16711796
0.3652437	0.2684357	0.8174744	16711809
0.3280154	0.185949	0.9664981	16711803
0.0442457	0.1178794	1.2148232	16711791
0.3551709	0.1156169	1.1040958	16711796
0.1513139	0.2465294	0.7892935	16711811
0.6590812	0.235484	0.8427895	16711808
0.6301296	0.2046359	0.8138091	16711810
0.1173697	0.1983117	0.9615306	16711803
0.461274	0.1261897	1.0838505	16711797
-0.4430582	0.1289901	1.2306837	16711791
-0.2787362	0.2307421	0.9417052	16711804
0.7117165	0.1928204	0.8510088	16711808
0.0162991	-0.1151688	0.6066858	16711819
0.0861998	-0.1240857	1.1105763	16711796
0.5844472	0.2775902	0.7560191	16711812
0.6629074	0.239523	0.702999	16711815
0.598546	0.1831498	0.9613348	16711803
0.5766107	0.2237107	0.7686567	16711812
-0.4833259	0.1391173	1.2083569	16711792
-0.3702826	0.1062406	1.3301694	16711786
-0.2479335	0.2179039	0.8732104	16711807
-0.3091701	0.1766388	1.080605	16711798
0.0686245	0.1641624	1.0733466	16711798
0.0252075	-0.0758571	0.6191508	16711818
-0.0072856	0.1247072	0.6711206	16711816
0.0142993	0.0475946	0.6437792	16711817
0.0043906	-0.0146493	0.6363412	16711818
0.0310534	-0.0081974	0.6298335	16711818
0.0826263	0.0843708	1.3667393	16711785
0.0134289	-0.0377009	0.6261443	16711818
0.2921087	0.2567683	0.791769	16711811
0.3309955	0.1387081	1.0490646	16711799
0.2303654	0.2531917	0.8166029	16711809
0.1930654	0.2403695	0.7779943	16711811
0.5450821	0.1953163	0.9737654	16711802
0.301366	0.1389583	1.0540402	16711799
0.2022831	0.1814466	0.9608498	16711803
0.4326166	0.2226912	0.8722098	16711807
-0.1290495	0.1290759	1.2068284	16711792
0.1455575	0.1193823	1.1762725	16711793
-0.236597	0.1707761	1.0801055	16711798
0.0550084	0.1293858	1.1715668	16711793
0.7017649	0.2169153	0.7583352	16711812
0.0106863	0.0639484	0.6531755	16711817
0.0342563	-0.1014432	0.6187364	16711818
0.0296272	-0.1155064	0.6097327	16711819
0.0210352	-0.1780554	0.6024901	16711819
0.0254417	-0.0292716	0.6275517	16711818
0.0356159	-0.144345	0.6110629	16711819
0.011492	-0.0258587	0.628468	16711818
0.0154825	-0.2001096	0.5836332	16711820
-0.0066986	-0.1020372	0.6308436	16711818
-0.0060835	-0.1017918	0.6310627	16711818
-0.0008738	-0.1918788	0.6039854	16711819
0.094422	0.1565151	0.6379732	16711817
-0.0241083	0.1325625	0.6468819	16711817
0.0372522	0.1414545	0.6023772	16711819
0.0279351	-0.156137	0.5988267	16711819
0.0231588	-0.0992681	0.6101664	16711819
0.1716647	0.0608312	1.4456059	16711781
0.1760722	0.0341946	1.5506816	16711776
0.1303752	0.207406	0.9456052	16711804
0.5638172	0.2326694	0.8200238	16711809
0.6169348	0.1959806	0.8884423	16711806
-0.3329758	0.1060964	1.0866075	16711797
-0.3766945	0.0879183	1.3852445	16711784
-0.4726175	0.1443741	1.1087877	16711796
-0.3175398	0.0938317	1.3403386	16711786
0.1764929	0.162927	1.0273216	16711800
0.0543821	0.1283218	1.1718636	16711793
-0.2976466	0.1193623	1.2435015	16711790
0.0283527	-0.1743614	0.5955163	16711819
0.1905153	0.2419829	0.8236439	16711809
-0.2818689	0.1515885	1.1220815	16711796
-0.1544878	0.2127935	0.8589089	16711808
0.096421	0.1506514	1.0712227	16711798
0.0287151	-0.1732192	0.5925515	16711820
0.1464763	0.1056539	1.202221	16711792
0.2033742	0.1969026	0.8972487	16711806
1.0502316	0.16171	1.0474666	16711799
0.8736163	0.2091764	0.8703735	16711807
-0.2384727	0.14433	1.1443743	16711795
-0.6229428	0.0442378	1.5676165	16711776
-0.6089805	-0.0091192	1.6856748	16711770
-0.2723501	0.1477837	1.1440885	16711795
0.3891708	0.1668872	1.0145001	16711800
0.426563	0.0179986	1.4352826	16711782
0.0570349	0.2082632	0.9605449	16711803
-0.2345044	0.1839616	1.0768695	16711798
-0.2685614	0.1427253	1.132356	16711795
-0.3889718	0.1936055	1.0199586	16711800
-0.3912503	0.1349364	1.2210058	16711791
-0.2525869	0.0256868	1.3956416	16711783
-0.6647679	0.0675535	1.3989885	16711783
0.1616776	0.0920189	1.2718786	16711789
0.1863079	0.1928582	0.9492476	16711803
-0.6129146	-0.0093888	1.6903515	16711770
0.7583573	0.2089246	0.8287272	16711809
0.3158834	0.0976015	1.1540605	16711794
0.004143	0.1590434	0.6427322	16711817
-0.1770228	0.2181072	0.9072604	16711805
0.7508118	0.0084527	1.528399	16711777
-0.1833076	0.1713628	1.0250131	16711800
0.9489899	0.1290113	1.090186	16711797
-0.4976728	0.0997452	1.239657	16711790
-0.5187869	-0.090103	1.8746368	16711762
1.141472	0.1249449	1.1480006	16711794
-0.1926809	0.2122423	0.9386775	16711804
0.7567237	-0.1189107	2.0427992	16711754
0.001988	-0.0640913	0.6207909	16711818
0.6091936	0.1719346	1.0183448	16711800
-0.1311972	0.1765602	1.0243273	16711800
0.5339439	0.2523046	0.7671406	16711812
0.4606082	0.2541243	0.8161365	16711809
0.4750952	0.1982266	0.9573391	16711803
0.6403137	0.0215664	1.441431	16711781
0.6597104	-0.0754221	1.8857591	16711761
0.3032575	0.1299732	1.1563612	16711794
0.7163457	0.2406082	0.7580773	16711812
0.6959458	0.1517525	0.9993009	16711801
0.1916712	0.1152664	1.1659329	16711794
0.5714911	0.0064502	1.4449627	16711781
0.0642322	0.1828937	0.9939384	16711801
1.0017322	0.1914298	0.96535	16711803
0.6084805	0.1713953	0.9818772	16711802
0.7381317	0.1350177	1.0144142	16711800
0.7821862	0.1010459	1.1458589	16711795
-0.4199714	0.1815487	1.0937536	16711797
0.1794557	0.1494076	1.0673314	16711798
-0.5099289	-0.0336795	1.7531925	16711767
-0.2380182	0.2022358	0.9482159	16711803
-0.5681691	0.0785513	1.4610268	16711780
-0.2442561	0.1423471	1.123974	16711796
0.5374944	0.0924671	1.2239736	16711791
0.1620093	0.0895015	1.2736125	16711789
0.1457519	0.1617189	1.010031	16711801
-0.2516927	0.2202741	0.882849	16711806
0.4647277	0.2139955	0.9065624	16711805
-0.0250641	0.1700412	0.6599322	16711816
-1.1888417	-0.4915912	3.7237675	16712192
0.2686205	0.2573761	0.7868178	16711811
0.7084936	0.0505843	1.3932718	16711783
0.3632481	0.1257543	1.1170201	16711796
0.5990412	0.1312469	1.1154593	16711796
0.1695049	0.1361455	1.1253773	16711795
0.7217976	0.1262107	1.1608351	16711794
-0.1647771	0.1523753	1.1406963	16711795
-0.1919987	0.2278717	0.8394298	16711808
-0.2410438	0.1008072	1.2092731	16711792
0.7215551	-0.0869218	1.8810714	16711761
0.4277788	0.2092641	0.8524547	16711808
-0.5398502	0.0158719	1.6364812	16711772
0.6805574	-0.1464334	2.1456907	16711749
0.6969523	-0.0397744	1.6779208	16711771
0.2044034	0.14933	1.0588645	16711798
0.8527665	0.2168705	0.8717853	16711807
0.5975636	0.2140051	0.8439373	16711808
0.4278805	0.274021	0.7692866	16711812
0.4564106	0.0477613	1.3266432	16711786
0.2329403	0.1284107	1.0344343	16711800
0.4978839	0.0691792	1.3137164	16711787
-0.7132679	-0.1479841	2.2404962	16711745
-0.5155658	-0.0337681	1.7678946	16711767
-0.4804698	0.0111958	1.6668398	16711771
0.0040055	-0.1895216	0.5936178	16711819
0.659344	0.1053666	1.2284843	16711791
0.0022513	-0.1490009	0.6059806	16711819
0.7540668	0.0274205	1.4828361	16711779
1.3621655	-0.184596	2.2857645	16711743
0.4517527	0.0372436	1.3590696	16711785
0.6513775	0.1338767	1.1107885	16711796
0.1053898	0.1893572	0.9770311	16711802
0.4509709	0.1840467	0.9925265	16711801
-0.6790397	-0.0547544	1.8771224	16711762
0.889439	0.0451908	1.3560044	16711785
-0.3925544	0.1178834	1.2855211	16711788
0.6679984	0.1582269	0.9806275	16711802
0.2466544	-0.1873346	2.2831414	16711743
0.0189425	-0.033668	0.6299986	16711818
-0.2080723	0.204646	0.9361436	16711804
0.3454501	0.177808	1.0008917	16711801
0.2307987	0.2351982	0.847043	16711808
0.0176018	0.0377894	0.6429856	16711817
0.7699309	-0.1569927	2.2883062	16711743
-0.2470903	0.1006507	1.2573388	16711790
-0.7377107	-0.1525366	2.2894387	16711743
0.4913264	0.1813212	0.9881843	16711802
0.2327383	0.2367884	0.8466204	16711808
0.6633006	0.1819634	0.8989793	16711806
0.6310806	0.1587984	1.0270857	16711800
0.7271104	-0.0879598	1.8824868	16711761
0.8516122	0.0503927	1.3512031	16711785
0.6223847	0.1749968	0.9475451	16711804
0.2560253	0.1804045	0.946952	16711804
0.3779146	0.2129624	0.9124365	16711805
-0.3702482	0.1797483	0.9260049	16711804
-0.6309329	0.114597	1.3612764	16711785
0.087137	0.160807	1.0557045	16711799
0.0615511	0.2124884	0.9291741	16711804
-0.2248725	0.2409562	0.8458828	16711808
-0.4396158	0.1572596	1.1417071	16711795
0.1002835	0.0102003	1.3138121	16711787
0.3204978	0.1925705	0.918107	16711805
0.1817305	0.1635968	1.0158782	16711800
0.0791139	0.1233597	1.2495967	16711790
-0.2323075	0.2265908	0.8801795	16711807
-0.3203619	0.2206794	0.9087785	16711805
0.0334786	0.2012949	0.9979402	16711801
-0.2099394	0.0900181	1.3219377	16711787
-0.3177508	0.210241	0.9650654	16711803
-0.0853924	0.1893458	0.9057593	16711805
-0.3327912	0.1244331	1.2626479	16711789
0.1578498	0.1720045	0.9925437	16711801
-0.1486344	0.205878	0.9560763	16711803
-0.267722	0.2231544	0.8645676	16711807
-0.1823895	0.1635261	1.0921664	16711797
0.2220184	0.1585478	1.0248502	16711800
0.1093292	0.1702055	1.0261517	16711800
0.2993401	0.2147179	0.9084446	16711805
-0.2712396	0.2062794	1.0855386	16711797
-0.1684625	0.1949475	0.9470734	16711804
0.1496966	0.1496908	1.0803665	16711798
0.054231	-0.2459153	1.0111303	16711801
0.1421485	0.180926	0.9834022	16711802
-0.0446077	0.1603483	0.6402176	16711817
-0.0062663	-0.100892	0.6309922	16711818
-0.0087282	-0.0978947	0.6407024	16711817
0.0329895	0.1260075	0.7072494	16711814
0.0294841	-0.0049943	0.6438645	16711817
0.0354407	-0.0490921	0.6277825	16711818
0.0271653	0.0629926	0.6499848	16711817
0.0230574	-0.2127351	0.5817257	16711820
0.3360055	0.1674858	0.9936761	16711801
0.6508868	0.2494223	0.7287456	16711813
0.2723119	0.1563091	1.0000502	16711801
0.0204433	-0.1638647	0.6065721	16711819
0.0065577	-0.1682022	0.6022577	16711819
0.0645009	0.1597602	0.6432226	16711817
-0.1740198	0.2056166	0.9584249	16711803
0.2806077	0.237843	0.8699121	16711807
0.0435067	0.1356822	1.1587348	16711794
-0.1367503	0.1635634	1.0970236	16711797
-0.1869648	0.1726568	1.1026415	16711797
0.6692619	0.2810945	0.7334877	16711813
0.1687533	0.1990013	0.9293175	16711804
0.0396239	0.077497	1.2743772	16711789
0.0466621	0.1946232	0.9724379	16711802
-0.3226808	0.097529	1.3513581	16711785
0.0939434	0.1371904	1.1448011	16711795
-0.1336497	0.215323	0.9274459	16711804
0.0275692	-0.1972835	0.591886	16711820
0.0579928	0.1323138	1.1522455	16711794
0.2438009	0.130998	1.1044328	16711796
0.1633196	0.1627961	0.9431872	16711804
-0.7809293	0.0379743	1.6624452	16711771
-0.6505779	0.0110207	1.6715088	16711771
0.1931975	0.2059103	0.9264597	16711804
0.1633129	0.1773898	1.0047418	16711801
0.2448403	0.0818399	1.3357321	16711786
-0.4294685	0.0579785	1.4742638	16711780
-0.2531025	0.1933334	1.0403987	16711799
0.9825194	0.1859791	0.9614244	16711803
0.344826	0.1121819	1.1103071	16711796
-0.5233976	-0.001584	1.7090197	16711769
-0.1825286	0.1420125	1.1798495	16711793
0.0378456	0.0811579	1.2917787	16711788
0.5403682	0.1924415	0.966798	16711803
0.0417949	0.1364603	1.1592377	16711794
0.9070339	0.1922954	0.904973	16711805
0.7291684	0.1923771	0.8153785	16711809
-0.1998125	0.1822768	1.0823123	16711797
0.2406971	0.0909247	1.2586377	16711789
0.0744615	0.2107234	0.9532641	16711803
-1.0810317	-0.0522397	2.0590258	16711753
0.7189001	0.2291061	0.7876508	16711811
0.0542525	0.1293181	1.1718843	16711793
0.0778694	0.1111305	1.1977903	16711792
0.0601787	-0.1780476	1.0730857	16711798
0.0930001	0.1899699	0.975439	16711802
0.0536822	0.1347449	1.1596212	16711794
0.212889	0.1332357	1.1052359	16711796
0.0615786	-0.17602	1.0791483	16711798
0.2507811	0.0832018	1.1576068	16711794
0.2129554	0.132891	1.1050675	16711796
-0.4083295	0.1283448	1.2942499	16711788
0.2121837	0.090619	1.271583	16711789
0.5494775	-0.049025	1.7201618	16711769
0.0933066	0.2018071	0.9674205	16711803
0.8645961	0.0519233	1.2828248	16711788
0.1602031	0.1760185	1.0547659	16711799
0.1174176	0.2018547	0.9689894	16711803
-0.4849178	0.0570267	1.5420765	16711777
0.1814197	0.1196527	1.1024219	16711797
-0.2770478	0.1645931	1.0733619	16711798
0.1469879	0.083593	1.3382739	16711786
0.449432	0.1744196	1.0013725	16711801
0.1340389	0.064154	1.5154964	16711778
0.5361601	0.0938268	1.2092531	16711792
0.4882191	0.085785	1.2344465	16711791
1.0429013	0.1795024	0.9819684	16711802
0.9127434	0.0619708	1.2512177	16711790
0.6672956	-0.0378719	1.6611667	16711771
0.8254356	0.1850457	0.9227155	16711805
1.4059364	0.1164224	1.140308	16711795
0.6580026	0.1391827	1.0960031	16711797
0.6990557	0.2747619	0.7698984	16711812
0.1823744	-0.044311	1.8116363	16711765
0.6289588	0.1272424	1.1975859	16711792
0.4479015	0.0373447	1.3542649	16711785
0.8118812	-0.1865487	2.2723706	16711744
0.1462253	0.1380335	1.1015192	16711797
0.3256147	0.2072827	0.899418	16711806
0.2225739	-0.0379014	1.831288	16711764
0.4881904	0.2227181	0.8926008	16711806
1.2919449	0.1592211	1.1032454	16711796
0.3894216	0.0615252	1.3354766	16711786
0.762532	0.1015905	1.1505615	16711794
-0.4664452	0.1545445	1.1137048	16711796
0.4718738	0.1427563	1.0873262	16711797
-0.1962799	0.1568177	1.0728768	16711798
1.4829699	0.1229757	1.4270732	16711782
0.6401359	0.1194436	1.2500209	16711790
1.4376456	-0.2311319	2.4377508	16711736
0.7861538	0.075188	1.2688468	16711789
0.5093725	-0.3472828	2.9115958	16711715
0.7810391	-0.1938903	2.4285383	16711737
0.2374299	0.1752199	0.9641823	16711803
0.5577472	0.0432383	1.3190757	16711787
0.6503683	0.0936434	1.2628355	16711789
0.6692716	0.1199668	1.1861914	16711793
0.4331897	0.1045034	1.1811713	16711793
0.5564727	0.2147701	0.8504649	16711808
0.9148569	0.0604914	1.2571692	16711790
0.6225777	0.1796593	0.9794413	16711802
0.434252	0.1404632	1.0879385	16711797
0.6771596	0.1252585	1.0848718	16711797
0.4226875	0.018323	1.4314095	16711782
-0.1920367	0.1416357	1.1729163	16711793
0.0115952	-0.0874177	0.6151813	16711819
0.5423353	0.1263377	1.136807	16711795
0.1130406	0.1501298	1.0061543	16711801
0.3247041	0.2131772	0.8959386	16711806
0.2338674	0.1810263	0.9088854	16711805
0.1013795	0.1762812	1.0264589	16711800
0.0455008	0.1823358	1.032953	16711800
0.1469925	0.2180919	0.9270003	16711804
-0.3233597	0.1421719	1.1304547	16711795
-0.6980668	0.0310055	1.6551931	16711772
0.0614378	0.2098346	0.9234231	16711805
-0.097672	0.1950559	0.9745973	16711802
-0.3277315	0.1452264	1.1412752	16711795
-0.5085827	0.1412258	1.277737	16711789
0.0337594	-0.1018744	0.6192692	16711818
0.028772	-0.0019547	0.6539307	16711817
0.9501653	0.1950822	0.8074483	16711810
0.116764	0.204375	0.9776581	16711802
0.0651857	0.202128	0.9414113	16711804
0.3235952	0.196	0.9295583	16711804
0.0322039	0.1769103	1.0326035	16711800
-0.2251239	0.1807031	1.064886	16711798
0.028511	-0.2028508	0.5850635	16711820
-0.3277368	0.1013587	1.3655496	16711785
0.0612174	0.1777489	1.0110524	16711801
0.0900651	0.1919115	0.9798745	16711802
-0.6249158	0.0958426	1.5277199	16711777
0.0248261	-0.1745446	0.5850241	16711820
0.0172502	-0.1987588	0.5851603	16711820
0.0250638	-0.1537771	0.6238635	16711818
0.1568244	0.1661749	1.0169641	16711800
0.1855173	0.1919493	0.9473957	16711804
0.4050849	0.2321085	0.8708363	16711807
0.7135148	0.2217411	0.758127	16711812
-0.190424	0.1739398	1.0954052	16711797
-0.1724904	0.202979	0.9546117	16711803
0.9609278	0.2237253	0.8401623	16711808
0.0135436	-0.0870755	0.6116475	16711819
0.0219657	-0.108073	0.6089005	16711819
0.0217054	-0.0329026	0.6225339	16711818
-0.3047733	0.2121554	0.9643123	16711803
0.0072219	-0.2139941	0.58355	16711820
-0.1464126	0.2165855	0.917585	16711805
0.3330793	0.197327	0.9433535	16711804
-0.2225401	0.1182475	1.1926727	16711792
0.7077872	0.1637613	0.9109311	16711805
0.0335732	0.0837078	1.2938607	16711788
0.1898064	0.1835214	0.9584176	16711803
0.2131514	0.1727173	0.974238	16711802
0.0542151	-0.1326102	1.3040129	16711787
0.5206214	0.2193574	0.9114712	16711805
0.5181796	0.1786677	0.991286	16711802
0.7539501	0.2127022	0.7830001	16711811
0.3108355	0.1177895	1.1178324	16711796
0.5903459	0.1626509	1.0362172	16711800
0.9307514	0.1994877	0.9145984	16711805
0.234	0.1039396	1.1896603	16711793
0.2031764	0.1037863	1.1982014	16711792
-0.6270372	0.0795726	1.51062	16711778
0.5075069	0.2047584	0.9464026	16711804
0.3755836	0.202838	0.9403586	16711804
0.6541942	0.1357413	0.9214194	16711805
0.5792724	0.1807179	0.9926746	16711801
0.3012195	0.2175026	0.9017307	16711806
-0.2795365	0.1810076	1.0611246	16711798
0.7473971	0.1628686	0.8942114	16711806
0.1007462	0.1750019	1.0250348	16711800
0.1618759	0.0932746	1.27378	16711789
0.1830221	0.0738674	1.3712113	16711784
0.3998253	0.1250803	1.1109004	16711796
0.1153186	0.0890862	1.2966468	16711788
0.6409189	0.1433952	1.0668989	16711798
0.0372536	0.0795166	1.2779508	16711789
0.3812538	0.1257591	1.113174	16711796
0.4390645	0.1548274	1.0367379	16711799
0.7634873	0.2164046	0.7915227	16711811
0.1258994	0.1809149	1.0061783	16711801
0.3510075	0.0997719	1.1746552	16711793
-0.2140193	0.2218237	0.9499145	16711803
-0.363298	0.1194843	1.2455173	16711790
0.14639	0.0986038	1.2632328	16711789
0.0322268	0.1771272	1.023993	16711800
0.0308053	-0.1880948	0.5912977	16711820
0.2865089	0.0749681	1.3037645	16711787
0.1431268	0.0894361	1.3265852	16711786
0.1506149	0.1048239	1.2410047	16711790
-0.2242225	0.1875014	1.0496101	16711799
0.1848278	0.198092	0.9695308	16711803
0.4347401	0.1528783	1.0363936	16711800
0.1563253	0.2034854	0.9891579	16711802
1.0003318	0.168403	0.9798715	16711802
-0.2960465	0.1720736	1.0515993	16711799
0.0944027	0.1386339	1.1505142	16711794
0.1157546	-0.268112	1.5792366	16711775
0.3413983	0.1851284	0.962856	16711803
0.8827772	0.1517004	0.952356	16711803
0.0162017	-0.0007533	0.6324971	16711818
-0.7595714	-0.1777472	2.3026237	16711742
0.7040551	0.1832964	0.8637726	16711807
0.3873399	0.1652081	1.0096233	16711801
0.635286	0.1729685	0.954352	16711803
0.4797899	0.040482	1.3441197	16711786
0.05435	0.1691217	1.0553186	16711799
-0.7728926	-0.1288952	2.2537417	16711745
0.6152905	0.1967945	0.8736994	16711807
1.1220661	0.1898959	0.9445384	16711804
0.2005322	-0.0041025	1.5784634	16711775
0.3800249	0.0688541	1.2313676	16711791
0.3286965	0.0874843	1.2100871	16711792
0.3927836	0.1500093	1.0589643	16711798
0.0828853	0.0805356	1.3416461	16711786
0.439479	0.1557526	1.04342	16711799
0.1482033	0.1397995	1.096822	16711797
0.0442105	0.1188443	1.2163659	16711791
-0.2219466	0.1525502	1.1229333	16711796
1.1531307	0.1024927	1.1834764	16711793
-0.3227575	0.221815	0.9154863	16711805
0.2595164	0.0053369	1.53837	16711777
0.0922388	0.1373551	1.235041	16711791
0.128468	0.122009	1.3098933	16711787
-0.5884264	-0.0118666	1.7148	16711769
0.1952369	0.0482821	1.4962275	16711779
0.2193875	0.1933169	0.9558389	16711803
0.3892536	0.1804161	0.980249	16711802
0.4624781	0.2163294	0.9099684	16711805
0.8944983	0.1787597	0.9455119	16711804
0.7095602	0.1966809	0.8703092	16711807
-0.2505313	0.1353653	1.1699033	16711793
0.6129752	0.1946208	0.8401546	16711808
1.049883	0.184429	0.9950231	16711801
0.6233844	0.1762453	0.9516859	16711803
0.2480235	0.2284042	0.8688487	16711807
0.5502943	0.2140712	0.9324315	16711804
-0.6007557	-0.037372	1.7740453	16711766
-0.2309537	0.0712122	1.3859156	16711784
-0.1910636	0.1655407	1.1000041	16711797
0.0952638	0.1856378	0.9964138	16711801
0.5526694	0.2141982	0.9370137	16711804
0.4783276	-0.0005255	1.4747691	16711780
0.4378181	0.1930421	0.9866585	16711802
0.6238372	0.2370796	0.7874277	16711811
-0.5210968	-0.0285428	1.7973857	16711765
0.4410384	0.2274893	0.9295259	16711804
0.9121913	0.030206	1.4156817	16711782
0.6034396	0.118612	1.1811386	16711793
0.215019	0.1313593	1.1346105	16711795
0.8162019	-0.286837	2.6781561	16711725
1.3713207	0.0956249	1.3224673	16711787
0.479966	0.0288849	1.2994421	16711788
0.8471286	-0.1533324	2.1427159	16711750
0.1968528	0.1290999	1.1636999	16711794
0.457442	0.1755704	1.0123596	16711801
0.8682225	0.2540762	0.8796263	16711807
0.3565704	0.2587941	0.7996694	16711810
0.3855518	0.0725779	1.2559634	16711790
0.5854779	0.2067105	0.9895349	16711802
0.468593	0.0668407	1.3064026	16711787
0.1894326	0.0111276	1.5672897	16711776
0.4580669	0.0474046	1.2968044	16711788
0.528301	0.0143242	1.402014	16711783
1.0914311	-0.1846264	2.2232654	16711746
-0.5123062	-0.0947675	1.9473789	16711758
0.2388565	0.1917875	0.9350636	16711804
0.4065316	0.2105308	0.9529257	16711803
0.4146124	0.1003196	1.1752987	16711793
0.4279327	0.2128029	0.9264152	16711804
0.007749	-0.0517612	0.6252337	16711818
0.2604506	0.2074934	0.9013492	16711806
0.0994379	0.2117618	0.92835	16711804
-0.2093808	0.1476527	1.1510495	16711794
-0.5161632	0.0757344	1.4869969	16711779
-0.3387572	0.1452872	1.1936593	16711792
-0.3476504	0.0618925	1.4282207	16711782
0.1529989	0.2238456	0.9109579	16711805
0.0300286	-0.1891234	0.5950873	16711819
0.5172932	0.2172183	0.9071069	16711805
0.6540837	0.15518	0.9436974	16711804
0.371713	0.1874305	0.9561967	16711803
0.1418312	0.2091619	0.9190338	16711805
-0.2682238	0.1035723	1.2650634	16711789
0.0338691	0.1757376	1.0487522	16711799
-0.355206	0.0662279	1.4290251	16711782
0.0059268	0.1381373	0.659775	16711816
0.1057181	0.1585294	1.0777134	16711798
-0.3249912	0.1118611	1.3334401	16711786
-0.4320285	0.0515182	1.4844779	16711779
0.0271854	0.1470158	1.1274498	16711795
0.1321481	0.2097117	0.9513863	16711803
0.1047635	0.189239	0.9738424	16711802
0.6182427	0.1914161	0.8684453	16711807
0.8319348	0.1968728	0.8806996	16711807
0.9587135	0.1869075	0.9463665	16711804
0.1312155	0.0125412	1.6162505	16711773
0.0111986	-0.0815422	1.6938604	16711770
0.4149205	0.2074716	0.9301959	16711804
0.1485602	0.1864751	0.932364	16711804
0.5568725	0.2084992	0.8926355	16711806
-0.1956663	0.1940695	1.0351211	16711800
-0.2355121	-0.0902389	1.2626234	16711789
0.0233595	-0.1533781	0.597567	16711819
0.1006433	0.2045454	1.0022575	16711801
0.2869257	0.0432142	1.4378703	16711781
1.1701471	0.1624953	0.9619099	16711803
-0.2765078	0.1152304	1.2067471	16711792
0.2023809	0.2337495	0.8493399	16711808
1.2214209	0.07836	1.1905591	16711793
0.4534363	0.2235622	0.8810701	16711807
1.3842207	0.1008792	1.1140461	16711796
0.2107082	0.0090004	1.6263709	16711773
0.4972618	0.1716312	1.0372223	16711799
0.2382663	0.2280941	0.8666924	16711807
0.1453449	0.1393175	1.0949091	16711797
-0.700807	-0.1058527	2.0845532	16711752
0.9843055	0.1822546	0.8524358	16711808
0.3495915	0.2321734	0.8702832	16711807
1.4101793	0.0607272	1.2821668	16711788
-0.7047859	-0.0437407	1.8870283	16711761
-0.3623996	0.193564	1.008165	16711801
0.1794213	0.0079563	1.6368868	16711772
0.4292556	0.2202654	0.901565	16711806
0.5411954	0.1731587	1.0080296	16711801
1.3937198	0.0553324	1.2172122	16711791
0.8875645	0.1762559	0.9381666	16711804
0.2396115	0.0778791	1.3088249	16711787
-0.2403141	0.1537441	1.111486	16711796
0.2564555	0.2376487	0.8235072	16711809
0.7637507	0.1693784	0.9081769	16711805
-0.4787253	0.1454316	1.3028922	16711787
0.1237284	0.1154841	1.2666498	16711789
-0.2757641	0.1078848	1.2804312	16711788
0.7713431	0.179085	0.877961	16711807
0.0705419	0.1510223	1.0976856	16711797
-0.6118353	-0.0370215	1.7964568	16711765
-0.1589943	0.222647	0.9376522	16711804
0.3254005	0.0761911	1.1915575	16711793
-0.667569	-0.0562535	1.8451458	16711763
1.1237334	0.1181378	1.1669123	16711794
0.6208222	0.2132628	0.803822	16711810
0.0552235	-0.2802684	1.1413465	16711795
0.0147817	0.0833971	0.6531711	16711817
0.0542895	0.1432135	1.1901729	16711793
1.1848427	0.1020676	1.1700273	16711793
0.0251847	0.061289	1.3130907	16711787
0.1979072	0.1100193	1.1152277	16711796
0.8104708	0.1711793	0.9210141	16711805
0.6637247	0.1744451	0.9203055	16711805
-0.5386257	0.0261011	1.6176952	16711773
-0.2316478	0.1533629	1.1419058	16711795
0.2000847	0.2176989	0.8947806	16711806
-0.5720767	0.0527492	1.5853925	16711775
-0.2380217	0.1522063	1.1054773	16711796
0.0110159	0.0872992	1.3512353	16711785
0.6117504	0.2391654	0.6817263	16711816
0.9496105	0.1969729	0.8042965	16711810
-0.5508911	0.0689709	1.5440084	16711777
-0.2064644	0.197962	0.9804398	16711802
1.2110614	0.1562593	1.0971997	16711797
0.9584547	0.189298	0.9011192	16711806
0.3259363	0.1532332	1.0230713	16711800
0.0458411	-0.2650864	1.1228323	16711796
-0.1998679	0.2203582	0.9090279	16711805
0.1610827	0.0915695	1.2787395	16711789
-0.2685526	0.2217644	0.9206095	16711805
-0.2302526	0.2016567	0.9923292	16711801
-0.3987027	0.1597251	1.178864	16711793
0.1931066	0.119495	1.2402644	16711790
0.1493202	0.1531695	1.0867853	16711797
0.0328622	-0.3407595	1.3059897	16711787
0.0074199	-0.1531795	0.6007528	16711819
0.5270427	0.1211966	1.1500264	16711794
0.1291799	0.1880343	0.9161634	16711805
0.162677	0.1759011	0.9392378	16711804
0.0872463	-0.277072	1.0894531	16711797
0.1841904	0.179878	0.9724057	16711802
-0.2542725	0.2200757	0.9387099	16711804
0.0658806	-0.3042547	1.1695155	16711793
0.057768	-0.1807555	1.1901661	16711793
1.2924702	0.0981217	1.1368729	16711795
-0.2052453	0.1356546	1.1876733	16711793
0.3275385	0.1861343	0.9656994	16711803
0.1896931	0.1640031	1.0453949	16711799
0.2650723	0.1404562	1.0509685	16711799
0.1630837	0.0515187	1.5092169	16711778
0.9923789	0.1569668	1.0273724	16711800
0.0624958	0.205897	0.970137	16711802
-0.1384678	0.1825249	1.0176446	16711800
0.3212886	0.0765697	1.3144473	16711787
0.5298754	0.2286281	0.7716097	16711811
1.0350497	0.1822443	1.0045575	16711801
-0.2049077	0.2389097	0.8679354	16711807
0.5634217	0.1540003	1.0592023	16711798
0.0841912	0.1570205	1.0852262	16711797
0.7253184	0.1016512	1.2088208	16711792
-0.2363451	0.1976341	0.9896963	16711802
-0.80796	-0.2011958	2.1987977	16711747
0.2029977	0.0807126	1.2213745	16711791
0.4694719	0.2396852	0.8893489	16711806
0.751909	0.0991555	1.2221936	16711791
0.4328417	0.1084548	1.1816261	16711793
0.4451453	0.1214026	1.1509296	16711794
0.4428816	0.0942663	1.3418351	16711786
0.7039565	-0.1706612	2.272974	16711744
0.7170901	0.190844	0.8976436	16711806
0.7942566	0.0689893	1.3234973	16711787
0.0165825	-0.0725422	0.6171122	16711818
0.8600168	-0.1355783	2.0088367	16711756
-1.3988719	-0.5812719	3.8908324	16713984
0.2307997	0.192194	0.9233299	16711805
2.0097587	-0.0400579	1.6598448	16711771
0.9611573	-0.0724608	2.027005	16711755
0.1621158	0.1572036	1.046856	16711799
0.1486415	0.103913	1.2522998	16711790
0.2552691	0.1691839	0.9834265	16711802
0.5599266	0.2135084	0.8199409	16711809
0.1959746	0.0155749	1.6301284	16711773
0.1661087	0.0509433	1.4980967	16711779
0.7108106	0.1933286	0.8472992	16711808
-0.2396486	0.2356728	0.8281254	16711809
0.0943871	0.1345208	0.654195	16711817
0.6477239	0.1851461	0.8617645	16711807
0.7353167	0.1162043	1.1142964	16711796
0.4669277	0.0939287	1.2002187	16711792
-0.23294	0.2278355	0.8626719	16711807
1.0295188	-0.0114507	1.6288596	16711773
0.7088205	-0.0404091	1.7111025	16711769
0.4036682	0.0904732	1.2140361	16711791
0.0269913	-0.1567545	0.6016706	16711819
0.3247641	0.1606054	0.9054719	16711805
0.0670528	0.1940244	0.9593556	16711803
0.1450219	0.1813902	0.9898427	16711802
-0.6001689	0.0217052	1.6237361	16711773
0.120599	0.1784651	1.0252436	16711800
0.2067343	0.1509584	1.0675098	16711798
0.032423	0.2156973	1.0532634	16711799
-0.1563426	0.1707481	1.030383	16711800
0.0841924	0.1537776	1.0775597	16711798
-0.1482632	0.2062354	0.9543766	16711803
-0.14759	0.2187721	0.9213747	16711805
-0.227623	0.2225537	0.9078053	16711805
-0.2841471	0.2016947	0.9842541	16711802
0.502835	0.1702597	1.0124477	16711801
0.2358307	0.1707009	0.9799049	16711802
0.4502755	0.1511946	1.0722181	16711798
0.0159644	-0.0567872	0.619823	16711818
0.3796002	0.2176493	0.9043438	16711805
0.592046	0.2212852	0.826085	16711809
0.6625151	0.195433	0.8416496	16711808
0.4455177	0.1921328	0.9749314	16711802
0.1550173	0.193896	0.9616188	16711803
0.2380877	0.1494726	1.0529163	16711799
0.0748356	0.2099743	0.9267972	16711804
0.2310741	0.1766935	0.9499326	16711803
0.7735496	0.1984812	0.8799286	16711807
0.5434459	0.1833958	0.9916533	16711802
0.1387229	0.1964954	0.9645335	16711803
0.4101543	0.1660208	1.0101881	16711801
0.415151	0.1628914	1.0228864	16711800
-0.3527517	0.081547	1.3857116	16711784
-0.2805113	0.0968795	1.2974874	16711788
1.2207717	0.1264586	1.1656524	16711794
0.6568517	0.1757894	0.8912902	16711806
0.7400569	0.1921415	0.8787881	16711807
0.3916905	0.1168052	1.1591198	16711794
0.0611554	0.1796259	1.0125327	16711801
0.6820456	0.1707884	0.9071223	16711805
-0.4980286	-0.0950512	1.9104265	16711760
0.1418039	0.2108594	0.9227172	16711805
0.2322678	0.0997498	1.2192278	16711791
-0.0042398	0.0965732	1.3030841	16711787
0.0293186	-0.0187971	0.6326907	16711818
0.5753889	0.1952566	0.9459103	16711804
0.1699426	0.2283855	0.8594034	16711807
0.3440949	0.1321451	1.0863421	16711797
0.4703745	0.17087	1.0279845	16711800
0.0101783	0.1796542	1.0393043	16711799
0.068554	-0.2652648	1.1378299	16711795
0.0212057	-0.1199059	0.6025083	16711819
0.0754588	-0.2582463	1.023599	16711800
0.0669005	-0.2657053	1.1406535	16711795
0.9512826	0.2044856	0.8906265	16711806
0.0434743	-0.2779187	1.1828725	16711793
0.0714919	-0.295779	1.124051	16711796
0.0211579	-0.0556253	1.4125693	16711783
0.2341486	0.097024	1.2278844	16711791
0.0477475	0.1513216	1.0936117	16711797
0.0152303	-0.0715258	0.6188937	16711818
0.0924377	-0.1335877	1.3092656	16711787
0.6522899	0.1145259	1.2483058	16711790
1.1100825	0.1319026	1.1022041	16711797
0.2271977	0.1210511	1.1088638	16711796
0.0278342	-0.1563878	0.5978149	16711819
0.0293609	-0.1158841	0.6094267	16711819
0.1011458	0.1796276	1.0312953	16711800
-0.2078798	0.1499448	1.1424452	16711795
0.0863755	-0.1370119	1.3738704	16711784
0.1956684	0.1728953	1.0055296	16711801
0.0118514	-0.0349615	0.6273898	16711818
0.6156353	0.1919745	0.8830891	16711806
-0.2795251	0.1548137	1.0572872	16711799
0.068323	-0.2499237	1.0558573	16711799
0.0511619	0.1507475	1.0768769	16711798
0.8504016	0.1661597	0.9232957	16711805
-0.0002674	-0.0015705	0.6415225	16711817
0.5861949	0.2187249	0.8651443	16711807
0.3729216	0.1581611	1.0166906	16711800
0.2840132	0.0896628	1.1685092	16711794
0.20125	0.2060639	0.9192178	16711805
0.1130224	0.1686438	1.056311	16711799
0.2331569	0.16502	0.9708411	16711802
0.4588737	0.0945706	1.1972789	16711792
0.9799516	0.2061301	0.8438122	16711808
0.1909303	0.1276594	1.122704	16711796
-0.293601	0.152956	1.1045669	16711796
0.1464334	-0.0376286	1.7035432	16711769
0.2718553	0.1570198	1.0042918	16711801
0.1068408	0.1460408	1.1029125	16711797
0.5071978	0.1124223	1.1679522	16711794
0.2299661	0.1239607	1.1380225	16711795
0.2331231	0.0943522	1.2215739	16711791
0.6868836	0.0950482	1.3499457	16711785
0.2610706	0.0942867	1.1819011	16711793
0.2180369	0.1544925	1.028209	16711800
0.1742347	0.2058721	0.936592	16711804
0.5603821	0.2163418	0.8537458	16711808
0.6414913	0.1649644	0.9913495	16711802
0.1570929	0.1290422	1.1414059	16711795
0.5341861	0.0344883	1.356916	16711785
0.210313	0.1117756	1.1757858	16711793
0.2220798	-0.1219485	2.0412567	16711754
0.0871296	0.1949392	0.9749568	16711802
0.7401724	0.1192046	1.1285257	16711795
0.2000864	0.1009344	1.1917746	16711792
0.6623042	0.1997575	0.9111126	16711805
0.2598897	0.1637093	1.0005184	16711801
