# .PCD v0.7 - Point Cloud Data file format
VERSION 0.7
FIELDS x y z rgb
SIZE 4 4 4 4
TYPE F F F F
COUNT 1 1 1 1
WIDTH 1069
HEIGHT 1
VIEWPOINT 0 0 0 1 0 0 0
POINTS 1069
DATA ascii
16.706234 -1.1113284 58.203266 9.1476764e-41
15.461792 -1.5522834 61.823467 9.1476764e-41
2.9619946 -3.7887616 72.418442 9.1476764e-41
16.900898 -1.2458107 60.027988 9.1476764e-41
-8.6955957 -4.9706283 71.676811 9.1476764e-41
45.357391 -1.0221312 93.113304 9.1476764e-41
42.017757 -0.97793144 88.402504 9.1476764e-41
15.447385 -1.101252 56.504948 9.1476764e-41
15.428374 -1.1887316 57.509132 9.1476764e-41
11.172975 -1.6726166 57.854977 9.1476764e-41
15.010602 -1.1530838 56.565887 9.1476764e-41
14.845348 -1.1524611 56.351166 9.1476764e-41
16.193483 -1.0834041 57.231583 9.1476764e-41
15.136585 -1.240532 57.751675 9.1476764e-41
15.798659 -1.1312 57.297752 9.1476764e-41
12.805169 -1.3787315 56.449757 9.1476764e-41
13.200977 -1.2916204 55.922798 9.1476764e-41
14.757112 -1.2895461 57.851425 9.1476764e-41
9.9511738 -1.8073804 57.905289 9.1476764e-41
15.491498 -1.2183893 57.936886 9.1476764e-41
14.853663 -1.2013367 56.935982 9.1476764e-41
14.776138 -1.2225319 57.087769 9.1476764e-41
13.716344 -1.2538226 56.125408 9.1476764e-41
9.3290663 -1.9326302 58.596436 9.1476764e-41
17.342299 -0.95137751 57.121834 9.1476764e-41
15.225752 -1.1344815 56.617298 9.1476764e-41
17.158138 -1.0161852 57.652317 9.1476764e-41
15.442023 -1.2584772 58.345901 9.1476764e-41
12.685862 -1.3722984 56.224419 9.1476764e-41
16.833097 -0.95195121 56.489513 9.1476764e-41
15.211968 -1.1920004 57.275948 9.1476764e-41
15.221008 -1.1962786 57.33757 9.1476764e-41
14.983796 -1.2776893 57.996586 9.1476764e-41
13.268512 -1.3150958 56.283432 9.1476764e-41
15.451065 -1.2280339 57.999485 9.1476764e-41
11.195429 -1.5794976 56.788841 9.1476764e-41
11.729364 -1.514246 56.692123 9.1476764e-41
18.303873 -1.10662 60.153027 9.1476764e-41
16.441347 -1.0215706 56.816006 9.1476764e-41
15.714461 -1.0994536 56.819004 9.1476764e-41
15.837163 -1.125131 57.274754 9.1476764e-41
15.906053 -1.2531389 58.86554 9.1476764e-41
13.609041 -1.3463806 57.078465 9.1476764e-41
18.285131 -1.5640531 65.50518 9.1476764e-41
10.856052 -1.7743492 58.652771 9.1476764e-41
13.280345 -1.2626497 55.681946 9.1476764e-41
15.717278 -1.1369387 57.263058 9.1476764e-41
15.587058 -1.1735035 57.529327 9.1476764e-41
14.861158 -1.1940069 56.859249 9.1476764e-41
15.333712 -1.2656856 58.294678 9.1476764e-41
14.75341 -1.2041053 56.842697 9.1476764e-41
14.854572 -1.1967657 56.883404 9.1476764e-41
15.248376 -1.1917781 57.319031 9.1476764e-41
17.09903 -1.0080608 57.482655 9.1476764e-41
17.297615 -1.0108473 57.764637 9.1476764e-41
16.202421 -1.0516838 56.870029 9.1476764e-41
14.395121 -1.4107319 58.82127 9.1476764e-41
15.420814 -1.2069123 57.713299 9.1476764e-41
14.539866 -1.2893686 57.576691 9.1476764e-41
13.516025 -1.8788407 63.219097 9.1476764e-41
12.941971 -1.3436543 56.209229 9.1476764e-41
16.428984 -1.0889082 57.591827 9.1476764e-41
14.713848 -1.2119534 56.885273 9.1476764e-41
14.947104 -1.1929371 56.954544 9.1476764e-41
15.581939 -1.1655753 57.429733 9.1476764e-41
15.389935 -1.1271397 56.737072 9.1476764e-41
15.723014 -1.1115191 56.971527 9.1476764e-41
15.025114 -1.1812286 56.914852 9.1476764e-41
12.909221 -1.4057311 56.89764 9.1476764e-41
9.5125418 -1.9026753 58.474678 9.1476764e-41
11.095547 -1.6807774 57.853706 9.1476764e-41
12.743506 -1.3710895 56.282562 9.1476764e-41
13.158635 -1.3576493 56.645615 9.1476764e-41
12.64658 -1.3624219 56.059055 9.1476764e-41
5.1240296 -2.9041929 64.736588 9.1476764e-41
17.373419 -0.93935257 57.019577 9.1476764e-41
17.470665 -1.2841574 61.19371 9.1476764e-41
15.696278 -1.0952598 56.746899 9.1476764e-41
16.548346 -1.1569489 58.541233 9.1476764e-41
13.141181 -1.7090889 60.753765 9.1476764e-41
14.812555 -1.2551126 57.516354 9.1476764e-41
13.037564 -1.2935786 55.740719 9.1476764e-41
16.266901 -1.1354014 57.934788 9.1476764e-41
15.876709 -1.2298372 58.554874 9.1476764e-41
15.519286 -1.2776781 58.668514 9.1476764e-41
15.348394 -1.1429093 56.870258 9.1476764e-41
14.687615 -1.2308253 57.074131 9.1476764e-41
15.889118 -1.1862555 58.058285 9.1476764e-41
15.25838 -1.2906264 58.493233 9.1476764e-41
15.455425 -1.15073 57.096493 9.1476764e-41
14.695076 -1.2588967 57.413383 9.1476764e-41
14.084887 -1.3342782 57.533443 9.1476764e-41
13.260585 -1.6180216 59.833412 9.1476764e-41
15.442666 -1.2285402 57.994892 9.1476764e-41
14.098432 -1.3304856 57.505871 9.1476764e-41
16.716925 -1.0748507 57.788002 9.1476764e-41
14.186802 -1.3042285 57.308212 9.1476764e-41
15.514653 -1.2766849 58.651028 9.1476764e-41
13.601158 -1.2672545 56.138695 9.1476764e-41
15.545241 -1.1943973 57.722389 9.1476764e-41
14.735917 -1.2063581 56.847218 9.1476764e-41
16.425196 -1.1079012 57.810276 9.1476764e-41
14.694731 -1.2550817 57.368114 9.1476764e-41
14.824019 -1.3764906 58.957153 9.1476764e-41
16.868664 -0.99686575 57.061977 9.1476764e-41
16.413301 -1.0590158 57.220856 9.1476764e-41
16.045078 -1.1167721 57.437462 9.1476764e-41
14.211636 -1.4064356 58.540501 9.1476764e-41
16.700718 -1.0729829 57.745712 9.1476764e-41
16.079054 -1.2585461 59.146206 9.1476764e-41
15.418551 -1.3683039 59.607105 9.1476764e-41
14.695388 -1.2537318 57.353077 9.1476764e-41
16.336451 -1.2454696 59.315575 9.1476764e-41
16.749107 -1.0510706 57.548935 9.1476764e-41
15.607674 -1.2366599 58.297405 9.1476764e-41
13.210477 -1.2963752 55.990597 9.1476764e-41
16.066164 -1.1294756 57.613216 9.1476764e-41
12.818645 -1.6029181 59.101273 9.1476764e-41
-3.2831075 -3.7762828 64.43396 9.1476764e-41
20.229988 -2.6464443 80.666107 9.1476764e-41
15.152891 -1.2197781 57.528244 9.1476764e-41
13.718178 -1.2533396 56.122036 9.1476764e-41
16.266682 -1.1354408 57.934975 9.1476764e-41
14.535395 -1.2820507 57.485081 9.1476764e-41
15.309446 -1.143507 56.828403 9.1476764e-41
16.734535 -1.1766715 59.006683 9.1476764e-41
18.978304 -0.94140989 59.057945 9.1476764e-41
17.479385 -1.4763347 63.463085 9.1476764e-41
15.786603 -2.0807755 68.441856 9.1476764e-41
12.610573 -1.3930289 56.37355 9.1476764e-41
15.673803 -1.6345854 63.056747 9.1476764e-41
19.722425 -1.0124234 60.826382 9.1476764e-41
13.483359 -1.4643301 58.30685 9.1476764e-41
16.821335 -1.1112474 58.346771 9.1476764e-41
15.399651 -1.1768332 57.333256 9.1476764e-41
17.345396 -1.065773 58.470078 9.1476764e-41
14.212078 -1.4027033 58.497192 9.1476764e-41
13.742863 -1.4892458 58.925343 9.1476764e-41
14.254953 -1.393303 58.440533 9.1476764e-41
13.975121 -1.5685757 60.149105 9.1476764e-41
17.171301 -1.0152828 57.65823 9.1476764e-41
14.649088 -1.4431262 59.520699 9.1476764e-41
16.754206 -1.0390756 57.414368 9.1476764e-41
14.583994 -1.2749131 57.462193 9.1476764e-41
15.659708 -1.1934873 57.855354 9.1476764e-41
14.531428 -1.3400228 58.161377 9.1476764e-41
14.575716 -1.2804794 57.51722 9.1476764e-41
15.249984 -1.1919373 57.322918 9.1476764e-41
11.147883 -1.5873479 56.821423 9.1476764e-41
14.695322 -1.2598083 57.424404 9.1476764e-41
14.135385 -1.3094168 57.304653 9.1476764e-41
14.053923 -1.3295218 57.438686 9.1476764e-41
14.107071 -1.365822 57.93198 9.1476764e-41
14.629806 -1.2447017 57.16465 9.1476764e-41
14.2183 -1.2881464 57.158749 9.1476764e-41
14.135521 -1.3105186 57.317772 9.1476764e-41
15.197075 -1.2132643 57.507149 9.1476764e-41
10.585043 -2.210778 63.441475 9.1476764e-41
16.068136 -1.1304716 57.627396 9.1476764e-41
16.055984 -1.2974223 59.57412 9.1476764e-41
15.789539 -1.7815956 64.929634 9.1476764e-41
16.763039 -1.3884616 61.531376 9.1476764e-41
11.917734 -2.0432248 63.144997 9.1476764e-41
12.116965 -2.2618108 65.963821 9.1476764e-41
11.46515 -2.1434972 63.755367 9.1476764e-41
16.274269 -1.0826216 57.323776 9.1476764e-41
17.180441 -1.001684 57.509892 9.1476764e-41
15.547313 -1.1900847 57.674305 9.1476764e-41
14.075371 -1.3362768 57.544987 9.1476764e-41
16.137867 -1.1160306 57.545204 9.1476764e-41
15.763998 -1.2094697 58.174065 9.1476764e-41
15.303511 -1.2042172 57.534409 9.1476764e-41
15.137415 -1.2776929 58.189423 9.1476764e-41
16.607676 -1.0690596 57.582836 9.1476764e-41
13.479871 -1.4186672 57.76585 9.1476764e-41
17.788074 -1.1637256 60.176777 9.1476764e-41
17.101973 -0.97906911 57.145645 9.1476764e-41
13.404085 -1.4327527 57.836266 9.1476764e-41
15.144154 -1.2334896 57.678413 9.1476764e-41
15.572864 -1.3028092 59.03109 9.1476764e-41
14.728955 -1.3368276 58.371735 9.1476764e-41
15.348088 -1.2565945 58.205883 9.1476764e-41
15.340528 -1.3220822 58.965992 9.1476764e-41
15.291825 -1.2191517 57.695251 9.1476764e-41
16.890421 -1.0145882 57.297554 9.1476764e-41
15.065889 -1.2130194 57.339626 9.1476764e-41
14.515316 -1.3864393 58.686634 9.1476764e-41
16.058407 -1.1744709 58.132256 9.1476764e-41
17.329842 -0.96726745 57.292938 9.1476764e-41
13.687603 -1.5023949 59.010513 9.1476764e-41
16.086006 -1.1261084 57.598549 9.1476764e-41
11.905484 -1.9886297 62.488033 9.1476764e-41
15.863781 -1.1438998 57.528728 9.1476764e-41
15.740979 -1.2323942 58.414577 9.1476764e-41
14.784342 -1.2193092 57.060192 9.1476764e-41
17.011898 -1.2462357 60.172291 9.1476764e-41
15.868335 -1.1418015 57.509785 9.1476764e-41
15.530738 -1.3848988 59.942924 9.1476764e-41
18.354713 -1.1181313 60.352116 9.1476764e-41
12.746198 -1.9591869 63.197151 9.1476764e-41
12.008024 -2.1540205 64.560364 9.1476764e-41
16.968544 -1.0550417 57.871002 9.1476764e-41
13.334764 -1.9452326 63.771835 9.1476764e-41
16.404459 -1.0985531 57.674393 9.1476764e-41
16.331787 -1.2413082 59.260818 9.1476764e-41
17.304499 -1.3432789 61.679951 9.1476764e-41
16.372778 -1.0727533 57.331436 9.1476764e-41
16.06996 -1.1089621 57.376907 9.1476764e-41
16.444286 -1.0869275 57.587757 9.1476764e-41
13.494667 -1.381385 57.346287 9.1476764e-41
15.42366 -1.1931752 57.555435 9.1476764e-41
15.309635 -1.2018577 57.514366 9.1476764e-41
15.964389 -1.1696589 57.95771 9.1476764e-41
14.612407 -1.2989984 57.780899 9.1476764e-41
13.728385 -1.4650079 58.62233 9.1476764e-41
17.096516 -1.0451585 57.915466 9.1476764e-41
12.843915 -1.4855671 57.753899 9.1476764e-41
16.005047 -1.1965939 58.325275 9.1476764e-41
14.528277 -1.3430685 58.193218 9.1476764e-41
14.586442 -1.3235326 58.036633 9.1476764e-41
15.478936 -1.1851091 57.530018 9.1476764e-41
13.360394 -1.5116951 58.709148 9.1476764e-41
16.389891 -1.1650368 58.437416 9.1476764e-41
15.070301 -1.3137485 58.528912 9.1476764e-41
14.057866 -1.5075072 59.535286 9.1476764e-41
15.63395 -1.1953013 57.844345 9.1476764e-41
16.4692 -1.2246016 59.236946 9.1476764e-41
20.603592 -1.0361379 62.210968 9.1476764e-41
14.515979 -1.3838726 58.657303 9.1476764e-41
13.252213 -1.6410711 60.093781 9.1476764e-41
11.154748 -1.7500134 58.741653 9.1476764e-41
11.899727 -1.5732782 57.59967 9.1476764e-41
16.455208 -1.1237065 58.033684 9.1476764e-41
15.97611 -1.5284685 62.189087 9.1476764e-41
16.408333 -1.7408763 65.227722 9.1476764e-41
16.798571 -1.1860778 59.197594 9.1476764e-41
11.881697 -2.0012209 62.606148 9.1476764e-41
12.735766 -1.7020475 60.162205 9.1476764e-41
12.751922 -1.6117556 59.121384 9.1476764e-41
14.075448 -1.5425042 59.968632 9.1476764e-41
15.349482 -1.2932289 58.638153 9.1476764e-41
15.897553 -1.186286 58.069229 9.1476764e-41
15.305943 -1.3602843 59.371532 9.1476764e-41
13.754598 -1.4872891 58.917072 9.1476764e-41
13.885476 -1.6362035 60.831345 9.1476764e-41
16.461296 -1.2207547 59.181816 9.1476764e-41
16.897232 -1.0596042 57.835121 9.1476764e-41
17.65296 -1.2770197 61.338615 9.1476764e-41
13.87883 -1.3765701 57.771839 9.1476764e-41
16.897697 -1.0643789 57.891815 9.1476764e-41
21.012133 -1.0410166 62.781036 9.1476764e-41
15.582586 -1.2733527 58.697128 9.1476764e-41
20.002048 -1.030898 61.394432 9.1476764e-41
11.633381 -1.6042873 57.62981 9.1476764e-41
11.493936 -1.9581933 61.613838 9.1476764e-41
15.77968 -1.3253242 59.555244 9.1476764e-41
16.628736 -1.0715433 57.638454 9.1476764e-41
13.679604 -1.4009222 57.807987 9.1476764e-41
14.863996 -1.2613174 57.653831 9.1476764e-41
17.006905 -1.070762 58.103889 9.1476764e-41
16.846226 -1.1094614 58.357018 9.1476764e-41
18.28982 -1.028326 59.215294 9.1476764e-41
16.93737 -1.0346066 57.591728 9.1476764e-41
12.263685 -1.6403148 58.844254 9.1476764e-41
17.404074 -1.0999459 58.945316 9.1476764e-41
12.968946 -1.4351697 57.318554 9.1476764e-41
11.721139 -1.6201516 57.926384 9.1476764e-41
11.111815 -1.7584207 58.786572 9.1476764e-41
16.666758 -1.1168226 58.218288 9.1476764e-41
13.537794 -1.358987 57.137196 9.1476764e-41
15.121144 -1.2176462 57.463348 9.1476764e-41
16.669952 -1.0703739 57.676441 9.1476764e-41
16.003855 -1.1451453 57.719162 9.1476764e-41
17.106962 -1.0576769 58.075691 9.1476764e-41
13.048751 -1.4651566 57.771114 9.1476764e-41
13.445735 -1.3931572 57.423218 9.1476764e-41
12.836777 -1.5960846 59.04372 9.1476764e-41
13.781898 -1.4747115 58.803528 9.1476764e-41
15.810425 -1.2001235 58.122498 9.1476764e-41
16.651957 -1.1929291 59.094105 9.1476764e-41
15.928277 -1.263188 59.011528 9.1476764e-41
11.088228 -2.0700085 62.418694 9.1476764e-41
12.014221 -1.8988938 61.569942 9.1476764e-41
13.58841 -1.5590749 59.552116 9.1476764e-41
18.907301 -1.116574 61.027332 9.1476764e-41
12.350214 -2.0505564 63.773937 9.1476764e-41
13.720667 -1.6301199 60.553013 9.1476764e-41
13.178375 -1.4425954 57.668659 9.1476764e-41
16.450001 -1.1235391 58.025181 9.1476764e-41
16.564602 -1.0949523 57.833065 9.1476764e-41
14.57295 -1.3113567 57.87661 9.1476764e-41
13.764367 -1.5759739 59.971542 9.1476764e-41
18.168779 -1.3871701 63.280453 9.1476764e-41
15.878781 -1.1826352 58.002766 9.1476764e-41
12.667922 -2.0888863 64.623116 9.1476764e-41
12.698356 -1.9727082 63.296009 9.1476764e-41
15.337873 -1.6762843 63.125179 9.1476764e-41
15.555373 -1.3436522 59.48912 9.1476764e-41
16.132557 -1.3004761 59.706108 9.1476764e-41
15.474561 -1.6760867 63.294407 9.1476764e-41
15.958914 -1.4916068 61.734314 9.1476764e-41
15.649894 -1.3630897 59.83617 9.1476764e-41
7.7406149 -2.4664137 62.875797 9.1476764e-41
16.204401 -1.2881585 59.651524 9.1476764e-41
18.826258 -1.468567 65.06218 9.1476764e-41
13.47752 -1.4646515 58.303299 9.1476764e-41
11.67133 -1.8338336 60.375023 9.1476764e-41
13.164753 -1.6311128 59.866985 9.1476764e-41
16.055822 -1.1758945 58.145744 9.1476764e-41
14.879957 -1.256374 57.615768 9.1476764e-41
13.196358 -1.5012729 58.380798 9.1476764e-41
15.314781 -1.3794712 59.608105 9.1476764e-41
9.4538822 -2.3477488 63.631481 9.1476764e-41
7.6672926 -2.7508128 66.125977 9.1476764e-41
15.274076 -1.2114923 57.582962 9.1476764e-41
17.417538 -1.0144844 57.957886 9.1476764e-41
13.347168 -1.4870601 58.403042 9.1476764e-41
17.076084 -1.0807692 58.308311 9.1476764e-41
16.060884 -1.1323628 57.640518 9.1476764e-41
13.553821 -1.5244097 59.101326 9.1476764e-41
13.183867 -1.5448394 58.877106 9.1476764e-41
16.074507 -1.1333597 57.669331 9.1476764e-41
13.750879 -1.3470943 57.264862 9.1476764e-41
13.019261 -1.449495 57.550049 9.1476764e-41
15.429338 -1.2000476 57.643326 9.1476764e-41
15.117358 -1.2533976 57.878738 9.1476764e-41
15.587734 -1.2218056 58.097813 9.1476764e-41
12.200657 -1.5446919 57.641407 9.1476764e-41
13.730061 -1.3657429 57.45789 9.1476764e-41
14.614586 -1.3503923 58.387604 9.1476764e-41
13.226706 -1.389962 57.110779 9.1476764e-41
11.83624 -2.0097077 62.64883 9.1476764e-41
12.806855 -1.9266129 62.890476 9.1476764e-41
16.605616 -1.1140175 58.108589 9.1476764e-41
15.659575 -1.3620771 59.836422 9.1476764e-41
16.662819 -1.193403 59.113304 9.1476764e-41
15.656643 -1.3578122 59.782623 9.1476764e-41
17.091948 -1.0007823 57.388233 9.1476764e-41
13.640958 -1.4045894 57.802582 9.1476764e-41
17.49674 -1.1292921 59.406487 9.1476764e-41
10.226401 -2.3609042 64.755623 9.1476764e-41
15.566486 -1.2272125 58.134689 9.1476764e-41
15.290367 -1.2552139 58.117214 9.1476764e-41
15.440093 -1.3113041 58.964291 9.1476764e-41
15.119927 -1.2468305 57.804787 9.1476764e-41
15.298441 -1.3303742 59.01062 9.1476764e-41
15.212097 -1.3774121 59.455036 9.1476764e-41
15.316285 -1.2398701 57.969425 9.1476764e-41
20.523251 -1.0435163 62.196846 9.1476764e-41
18.790224 -1.4774202 65.120995 9.1476764e-41
14.40735 -1.4066212 58.788307 9.1476764e-41
16.064177 -1.3004282 59.619724 9.1476764e-41
16.486481 -1.4726343 62.173466 9.1476764e-41
16.315737 -1.2444667 59.277794 9.1476764e-41
18.710682 -1.4450079 64.640259 9.1476764e-41
15.346464 -1.2571059 58.209854 9.1476764e-41
13.451763 -1.4246283 57.800625 9.1476764e-41
15.727365 -1.179196 57.772316 9.1476764e-41
13.558342 -1.5048898 58.877605 9.1476764e-41
12.113225 -1.9321066 62.084507 9.1476764e-41
14.875902 -1.2571883 57.620251 9.1476764e-41
11.437379 -1.9748924 61.739105 9.1476764e-41
13.774636 -1.5709527 59.925423 9.1476764e-41
13.691924 -1.3962588 57.768646 9.1476764e-41
11.706543 -2.0402439 62.844913 9.1476764e-41
16.436743 -1.1724969 58.583885 9.1476764e-41
12.568159 -1.5258251 57.880917 9.1476764e-41
15.895987 -1.1909778 58.122398 9.1476764e-41
16.046089 -1.2340043 58.816422 9.1476764e-41
14.414986 -1.3040432 57.592411 9.1476764e-41
10.323502 -2.1509707 62.410385 9.1476764e-41
11.157258 -2.1895616 63.910297 9.1476764e-41
14.332916 -1.3633827 58.18676 9.1476764e-41
16.881224 -1.4689634 62.625748 9.1476764e-41
15.061974 -1.3680873 59.15704 9.1476764e-41
14.931552 -1.4037331 59.412262 9.1476764e-41
15.443864 -1.280972 58.612564 9.1476764e-41
15.666001 -1.212086 58.081818 9.1476764e-41
16.854502 -1.143973 58.77298 9.1476764e-41
16.198404 -1.1432244 57.940754 9.1476764e-41
15.654593 -1.2315246 58.29594 9.1476764e-41
15.675732 -1.2610098 58.668976 9.1476764e-41
13.411379 -1.4315683 57.831501 9.1476764e-41
14.566293 -1.3288517 58.073853 9.1476764e-41
13.479583 -1.4641759 58.300297 9.1476764e-41
8.2385283 -2.0821943 58.98542 9.1476764e-41
13.193314 -1.3544123 56.651096 9.1476764e-41
15.059916 -1.3497472 58.938931 9.1476764e-41
13.517539 -1.3774019 57.328182 9.1476764e-41
15.106219 -1.3127583 58.562355 9.1476764e-41
14.649192 -1.5341887 60.590981 9.1476764e-41
15.682912 -1.2736615 58.826668 9.1476764e-41
13.500606 -1.3986518 57.556656 9.1476764e-41
8.4699888 -2.1947923 60.59914 9.1476764e-41
13.71894 -1.3864895 57.687744 9.1476764e-41
13.358528 -1.6184809 59.961735 9.1476764e-41
15.144413 -1.2724414 58.136494 9.1476764e-41
5.0876632 -2.7848899 63.288918 9.1476764e-41
12.26724 -2.1209466 64.497009 9.1476764e-41
15.314376 -1.3283755 59.00713 9.1476764e-41
12.236499 -2.1043987 64.263962 9.1476764e-41
13.255702 -1.5705993 59.269989 9.1476764e-41
14.247487 -1.5202352 59.922844 9.1476764e-41
15.679214 -1.3194678 59.360332 9.1476764e-41
12.033972 -1.5696232 57.725201 9.1476764e-41
16.323277 -1.2456024 59.300602 9.1476764e-41
15.216445 -1.3800768 59.491806 9.1476764e-41
16.009806 -1.1975918 58.342972 9.1476764e-41
17.298553 -1.0639871 58.390301 9.1476764e-41
7.84689 -2.6982913 65.734161 9.1476764e-41
8.5849609 -2.7124403 66.826744 9.1476764e-41
12.741442 -1.4296401 56.968044 9.1476764e-41
14.990744 -1.6700234 62.615944 9.1476764e-41
7.5215364 -2.7771599 66.252678 9.1476764e-41
16.731081 -1.5322278 63.180782 9.1476764e-41
16.108551 -1.1899534 58.37714 9.1476764e-41
16.83802 -1.2333207 59.802292 9.1476764e-41
17.78973 -1.5579107 64.811249 9.1476764e-41
15.734846 -1.2985604 59.184452 9.1476764e-41
15.704455 -1.1875972 57.842293 9.1476764e-41
12.225648 -1.7604772 60.208641 9.1476764e-41
19.927496 -0.98932052 60.812256 9.1476764e-41
13.356988 -1.4949644 58.508259 9.1476764e-41
15.57562 -1.2555239 58.478863 9.1476764e-41
15.582543 -1.2273134 58.156029 9.1476764e-41
14.00937 -1.4665481 58.993076 9.1476764e-41
15.81776 -1.2688137 58.938938 9.1476764e-41
16.86009 -1.1907759 59.330013 9.1476764e-41
15.599708 -1.2201056 58.092865 9.1476764e-41
14.066411 -1.5437714 59.972179 9.1476764e-41
17.783489 -1.1629869 60.162342 9.1476764e-41
14.565576 -1.3293093 58.078331 9.1476764e-41
7.7658987 -2.46456 62.885742 9.1476764e-41
18.177807 -1.3908567 63.33511 9.1476764e-41
16.234123 -1.579577 63.113522 9.1476764e-41
18.103647 -2.161927 72.303513 9.1476764e-41
18.100918 -1.884394 69.038574 9.1476764e-41
18.351625 -1.56589 65.610222 9.1476764e-41
17.015339 -1.5921173 64.241348 9.1476764e-41
18.699316 -2.4007626 75.857849 9.1476764e-41
12.19101 -1.653684 58.910156 9.1476764e-41
14.55571 -1.3315492 58.092274 9.1476764e-41
18.19029 -1.0094122 58.868111 9.1476764e-41
17.001234 -1.1239746 58.722118 9.1476764e-41
14.636105 -1.3483887 58.391068 9.1476764e-41
15.434361 -1.2568818 58.317532 9.1476764e-41
14.401554 -1.4127384 58.852924 9.1476764e-41
13.473593 -1.5402048 59.186256 9.1476764e-41
16.872118 -1.1908609 59.346107 9.1476764e-41
14.552014 -1.3812051 58.671181 9.1476764e-41
12.294853 -1.766559 60.36697 9.1476764e-41
15.424383 -1.2634807 58.382561 9.1476764e-41
14.94854 -1.4046698 59.444588 9.1476764e-41
12.286609 -1.9583538 62.610558 9.1476764e-41
13.73055 -1.4639426 58.61253 9.1476764e-41
17.815327 -1.1630424 60.202953 9.1476764e-41
14.393308 -1.3839489 58.504246 9.1476764e-41
15.168988 -1.2845085 58.309147 9.1476764e-41
15.739586 -1.2324382 58.413345 9.1476764e-41
15.458815 -1.3573114 59.528454 9.1476764e-41
15.570499 -1.4441556 60.689201 9.1476764e-41
15.808135 -1.2709816 58.952332 9.1476764e-41
12.035195 -2.1906023 65.024368 9.1476764e-41
13.925097 -1.4338651 58.503227 9.1476764e-41
15.307744 -1.3266884 58.978981 9.1476764e-41
15.306551 -1.3100536 58.781994 9.1476764e-41
13.19564 -1.5008118 58.374477 9.1476764e-41
13.702909 -1.5707858 59.833439 9.1476764e-41
7.8115683 -2.4545341 62.825237 9.1476764e-41
16.856525 -1.1434234 58.769062 9.1476764e-41
16.328598 -1.2287425 59.109146 9.1476764e-41
16.830341 -1.1041708 58.27491 9.1476764e-41
13.560184 -1.371295 57.309937 9.1476764e-41
14.150027 -1.3946116 58.324223 9.1476764e-41
16.545803 -1.145694 58.405777 9.1476764e-41
13.352429 -1.5137013 58.722729 9.1476764e-41
12.949666 -1.4487252 57.453659 9.1476764e-41
15.668519 -1.2959304 59.070301 9.1476764e-41
15.178905 -1.30795 58.597073 9.1476764e-41
15.048463 -1.4730636 60.373749 9.1476764e-41
15.999289 -1.1998206 58.355965 9.1476764e-41
16.043947 -1.2352978 58.828938 9.1476764e-41
13.131727 -1.5602838 58.993168 9.1476764e-41
15.179217 -1.305882 58.573162 9.1476764e-41
13.804569 -1.4135576 58.113312 9.1476764e-41
16.263418 -1.1781756 58.43309 9.1476764e-41
18.190563 -1.0097808 58.872784 9.1476764e-41
8.8488045 -2.4851184 64.486427 9.1476764e-41
15.306733 -1.3648084 59.42569 9.1476764e-41
13.536328 -1.3753777 57.327972 9.1476764e-41
14.713778 -1.8697327 64.615288 9.1476764e-41
17.823925 -1.2469746 61.200096 9.1476764e-41
17.742393 -1.1587776 60.061298 9.1476764e-41
17.570274 -1.3394845 61.968918 9.1476764e-41
18.18993 -1.395046 63.399555 9.1476764e-41
17.484715 -1.1341817 59.448853 9.1476764e-41
17.037241 -1.3927733 61.926182 9.1476764e-41
18.557842 -1.5352483 65.508934 9.1476764e-41
6.2297893 -2.4649665 60.962646 9.1476764e-41
7.8025732 -2.459115 62.867783 9.1476764e-41
16.373981 -1.1827571 58.625694 9.1476764e-41
12.252247 -1.8650618 61.471085 9.1476764e-41
13.261878 -1.6187006 59.843018 9.1476764e-41
15.894261 -1.2371054 58.662319 9.1476764e-41
15.145537 -1.2764486 58.184994 9.1476764e-41
15.35888 -1.2906656 58.619823 9.1476764e-41
14.864552 -1.4531052 59.908386 9.1476764e-41
15.348029 -1.2577817 58.219761 9.1476764e-41
15.971435 -1.2375162 58.764 9.1476764e-41
13.817809 -1.411216 58.102409 9.1476764e-41
13.005416 -1.5666441 58.909389 9.1476764e-41
15.470544 -1.2887785 58.737789 9.1476764e-41
16.863012 -1.1109836 58.395977 9.1476764e-41
15.07566 -1.3295801 58.721687 9.1476764e-41
15.078307 -1.3583827 59.063492 9.1476764e-41
13.13435 -1.4766577 58.013702 9.1476764e-41
14.206579 -1.3419099 57.775856 9.1476764e-41
20.370132 -1.0508949 62.091389 9.1476764e-41
11.964363 -1.7452908 59.702251 9.1476764e-41
13.567006 -1.5215734 59.084541 9.1476764e-41
17.520611 -1.1362709 59.518456 9.1476764e-41
8.493392 -2.46874 63.847897 9.1476764e-41
13.418077 -2.5897374 71.4505 9.1476764e-41
16.868261 -1.2357076 59.868298 9.1476764e-41
13.421117 -2.556788 71.067101 9.1476764e-41
15.968573 -1.5078826 61.937706 9.1476764e-41
12.823037 -1.4903481 57.783878 9.1476764e-41
13.153164 -1.5566579 58.977463 9.1476764e-41
14.153381 -1.3961017 58.345943 9.1476764e-41
14.593522 -1.3219007 58.02634 9.1476764e-41
15.572027 -1.4433409 60.681545 9.1476764e-41
13.744249 -1.4249992 58.172066 9.1476764e-41
16.403524 -1.1873679 58.716957 9.1476764e-41
19.178112 -0.99597311 59.949928 9.1476764e-41
19.068424 -0.98263878 59.655563 9.1476764e-41
15.567441 -1.4418133 60.657837 9.1476764e-41
15.114429 -1.3024201 58.451168 9.1476764e-41
13.13617 -1.5603102 58.999058 9.1476764e-41
13.776121 -1.4943262 59.026787 9.1476764e-41
16.05291 -1.2830406 59.401253 9.1476764e-41
15.088778 -1.3136494 58.550938 9.1476764e-41
13.528033 -1.3911844 57.503323 9.1476764e-41
15.81665 -1.3475757 59.86314 9.1476764e-41
15.564054 -1.3078797 59.079624 9.1476764e-41
17.82132 -1.163251 60.212925 9.1476764e-41
16.418789 -1.3841659 61.048847 9.1476764e-41
15.320608 -1.378058 59.598812 9.1476764e-41
15.27424 -1.2733463 58.310062 9.1476764e-41
18.97172 -0.99160713 59.639591 9.1476764e-41
16.26758 -1.3341005 60.270714 9.1476764e-41
16.113693 -1.3239756 59.958595 9.1476764e-41
2.8542507 -3.1930857 65.282944 9.1476764e-41
15.422413 -1.3724644 59.660847 9.1476764e-41
13.506439 -1.6097691 60.044987 9.1476764e-41
16.397842 -1.2882355 59.895203 9.1476764e-41
15.473741 -1.335765 59.29398 9.1476764e-41
16.382669 -1.1807548 58.613068 9.1476764e-41
16.037159 -1.2434279 58.915958 9.1476764e-41
17.370119 -1.0658391 58.501884 9.1476764e-41
18.496965 -1.0581492 59.825745 9.1476764e-41
12.759233 -1.5424097 58.315624 9.1476764e-41
11.417305 -1.8717766 60.502113 9.1476764e-41
12.262451 -1.6423396 58.866501 9.1476764e-41
14.838103 -1.4200586 59.486832 9.1476764e-41
16.393644 -1.2017534 58.873611 9.1476764e-41
15.319233 -1.3282781 59.012081 9.1476764e-41
12.786819 -1.5481948 58.418228 9.1476764e-41
16.309748 -1.2437375 59.261707 9.1476764e-41
5.8801899 -3.047205 67.366249 9.1476764e-41
3.2416699 -3.0122819 63.644398 9.1476764e-41
17.578226 -1.0562748 58.650669 9.1476764e-41
17.17939 -1.5661771 64.142395 9.1476764e-41
17.116972 -1.7257706 65.939568 9.1476764e-41
14.865548 -1.4550149 59.932076 9.1476764e-41
11.546995 -1.8323269 60.201271 9.1476764e-41
16.870047 -1.2479529 60.014442 9.1476764e-41
15.140661 -1.3831444 59.432747 9.1476764e-41
15.181798 -1.3366489 58.937969 9.1476764e-41
15.16852 -1.3204869 58.731369 9.1476764e-41
14.772652 -1.7057964 62.762627 9.1476764e-41
16.380007 -1.3238735 60.29163 9.1476764e-41
12.621874 -1.6282805 59.15237 9.1476764e-41
16.331261 -1.2502221 59.364914 9.1476764e-41
15.591012 -1.4692968 61.010399 9.1476764e-41
16.358507 -1.3822755 60.950974 9.1476764e-41
17.077271 -1.1236013 58.81316 9.1476764e-41
3.8259618 -3.4460571 69.475349 9.1476764e-41
11.173741 -2.0825808 62.673763 9.1476764e-41
16.844652 -1.2442451 59.938995 9.1476764e-41
16.517363 -1.2870902 60.031746 9.1476764e-41
5.8374739 -3.057745 67.436501 9.1476764e-41
15.769178 -1.3141398 59.410629 9.1476764e-41
15.668203 -1.3593223 59.814877 9.1476764e-41
15.498462 -1.2970438 58.869961 9.1476764e-41
15.767856 -1.3181733 59.456367 9.1476764e-41
9.9446964 -2.0228097 60.428848 9.1476764e-41
16.928631 -1.1498789 58.935421 9.1476764e-41
15.269109 -1.3053286 58.679474 9.1476764e-41
12.270844 -1.6400295 58.849888 9.1476764e-41
16.750757 -1.240564 59.777897 9.1476764e-41
12.813881 -1.5608604 58.601036 9.1476764e-41
14.659341 -1.48263 59.997807 9.1476764e-41
17.294161 -1.0945486 58.743942 9.1476764e-41
14.682252 -1.5257045 60.532764 9.1476764e-41
16.901237 -1.170119 59.138897 9.1476764e-41
14.709828 -1.512875 60.416603 9.1476764e-41
13.284779 -1.5264223 58.787319 9.1476764e-41
16.873791 -1.1461157 58.822369 9.1476764e-41
16.615784 -1.1889758 59.002243 9.1476764e-41
16.276087 -1.2229342 58.974987 9.1476764e-41
17.743576 -1.1079202 59.465115 9.1476764e-41
13.718761 -1.862047 63.276184 9.1476764e-41
18.74124 -0.99347657 59.372299 9.1476764e-41
12.391818 -1.6168073 58.728809 9.1476764e-41
16.712065 -1.2043278 59.303493 9.1476764e-41
16.273645 -1.3286577 60.214367 9.1476764e-41
16.412865 -1.3830711 61.028545 9.1476764e-41
15.769201 -1.3135151 59.403316 9.1476764e-41
7.1891012 -2.8426909 66.605568 9.1476764e-41
13.131158 -1.5607258 58.99765 9.1476764e-41
14.268283 -1.8117461 63.374729 9.1476764e-41
17.305176 -1.122274 59.083591 9.1476764e-41
15.156595 -1.3886523 59.517471 9.1476764e-41
15.028484 -1.4799929 60.430107 9.1476764e-41
17.368795 -1.1724547 59.753151 9.1476764e-41
17.499872 -1.4451261 63.12204 9.1476764e-41
15.697917 -1.7177384 64.064209 9.1476764e-41
13.786779 -1.9922109 64.891212 9.1476764e-41
14.687756 -1.523471 60.513424 9.1476764e-41
17.630138 -1.0402504 58.527504 9.1476764e-41
16.156693 -1.3792479 60.662113 9.1476764e-41
14.393372 -1.6648459 61.805374 9.1476764e-41
13.925835 -1.9646976 64.742401 9.1476764e-41
16.099089 -1.3238649 59.938965 9.1476764e-41
14.319544 -1.4920052 59.681526 9.1476764e-41
15.183346 -1.3371228 58.94548 9.1476764e-41
16.849735 -1.1887715 59.293461 9.1476764e-41
11.708184 -1.7725458 59.701035 9.1476764e-41
18.247705 -1.5490048 65.281364 9.1476764e-41
14.586641 -1.4111247 59.06625 9.1476764e-41
13.843979 -1.9719247 64.724602 9.1476764e-41
12.60308 -1.6260695 59.102798 9.1476764e-41
15.069643 -1.335556 58.784367 9.1476764e-41
15.07441 -1.3651443 59.138062 9.1476764e-41
13.617869 -1.4832221 58.697681 9.1476764e-41
13.291549 -1.4978309 58.459816 9.1476764e-41
13.671706 -1.437421 58.227001 9.1476764e-41
11.371454 -1.7557706 59.081287 9.1476764e-41
17.286963 -1.1250364 59.093193 9.1476764e-41
16.653156 -1.1857637 59.011402 9.1476764e-41
13.622267 -1.4819752 58.688545 9.1476764e-41
15.828339 -1.2526164 58.761864 9.1476764e-41
15.748619 -1.2935702 59.143093 9.1476764e-41
15.455532 -1.290043 58.73381 9.1476764e-41
14.905954 -1.3995262 59.330696 9.1476764e-41
15.615155 -1.3089931 59.156841 9.1476764e-41
11.608869 -1.7195258 58.953308 9.1476764e-41
14.45459 -1.4406292 59.247253 9.1476764e-41
14.564586 -1.5747824 60.961845 9.1476764e-41
14.957124 -1.4650493 60.164928 9.1476764e-41
11.928511 -1.7358077 59.545811 9.1476764e-41
13.398394 -1.4486949 58.016472 9.1476764e-41
16.7302 -1.2036268 59.318016 9.1476764e-41
14.713252 -1.5125176 60.416702 9.1476764e-41
16.149441 -1.2485025 59.116516 9.1476764e-41
15.05307 -1.3579018 59.026169 9.1476764e-41
15.157362 -1.4462218 60.194981 9.1476764e-41
14.592335 -1.5004205 60.12278 9.1476764e-41
14.980803 -1.3885822 59.296021 9.1476764e-41
14.410217 -1.5794163 60.822563 9.1476764e-41
8.3685656 -2.2223001 60.79512 9.1476764e-41
11.695818 -2.1287758 63.871864 9.1476764e-41
17.425074 -1.137598 59.414154 9.1476764e-41
16.251211 -1.2465866 59.221725 9.1476764e-41
10.682247 -2.5699282 67.784134 9.1476764e-41
13.733018 -2.0024986 64.944641 9.1476764e-41
9.3968096 -2.9614489 70.771942 9.1476764e-41
15.045896 -1.3532249 58.9622 9.1476764e-41
17.25028 -1.1978223 59.902523 9.1476764e-41
17.101713 -1.3121418 61.059528 9.1476764e-41
15.637646 -1.3213973 59.330841 9.1476764e-41
15.397622 -1.3484104 59.347054 9.1476764e-41
4.3283701 -4.679688 84.603302 9.1476764e-41
16.128761 -1.3178728 59.905788 9.1476764e-41
14.935438 -1.4043114 59.423935 9.1476764e-41
11.812866 -2.0574312 63.180336 9.1476764e-41
11.788546 -2.0637536 63.22411 9.1476764e-41
15.81829 -1.3025107 59.335602 9.1476764e-41
17.764105 -1.0725883 59.075665 9.1476764e-41
15.459654 -1.2941457 58.787197 9.1476764e-41
18.083008 -1.2315238 61.343681 9.1476764e-41
15.958648 -1.3335868 59.876957 9.1476764e-41
5.1306314 -2.8097198 63.63464 9.1476764e-41
8.0164566 -2.3276775 61.591583 9.1476764e-41
14.096089 -1.5380843 59.942593 9.1476764e-41
15.25318 -1.3688408 59.405869 9.1476764e-41
14.190337 -1.4933536 59.535213 9.1476764e-41
14.266235 -1.516046 59.897144 9.1476764e-41
14.106695 -1.555001 60.154709 9.1476764e-41
15.704085 -1.2857476 58.995274 9.1476764e-41
10.147128 -1.9898638 60.295731 9.1476764e-41
15.154934 -1.4482008 60.215191 9.1476764e-41
16.015106 -1.3116841 59.690418 9.1476764e-41
2.5008638 -3.0670183 63.35791 9.1476764e-41
15.328029 -1.324296 58.976322 9.1476764e-41
15.638871 -1.3160838 59.269932 9.1476764e-41
15.616516 -1.3263513 59.362537 9.1476764e-41
14.292111 -1.5086998 59.843288 9.1476764e-41
13.297918 -1.4965757 58.45306 9.1476764e-41
16.127485 -1.3255589 59.994514 9.1476764e-41
15.58739 -1.4305824 60.550888 9.1476764e-41
16.962372 -1.1206108 58.633812 9.1476764e-41
13.758209 -1.7886657 62.463329 9.1476764e-41
17.172045 -1.2104803 59.953091 9.1476764e-41
14.706462 -1.519011 60.484489 9.1476764e-41
14.472878 -1.4592061 59.488514 9.1476764e-41
15.77473 -1.3114686 59.386204 9.1476764e-41
15.396913 -1.3460015 59.317852 9.1476764e-41
15.332159 -1.3742647 59.568729 9.1476764e-41
15.239094 -1.3525612 59.196873 9.1476764e-41
14.228744 -1.4181995 58.700218 9.1476764e-41
17.3948 -1.136415 59.362255 9.1476764e-41
16.324062 -1.2519583 59.376282 9.1476764e-41
13.931656 -1.5131855 59.443619 9.1476764e-41
14.46874 -1.4372771 59.225616 9.1476764e-41
14.429587 -1.4302154 59.093491 9.1476764e-41
16.375874 -1.2805074 59.77681 9.1476764e-41
14.873855 -1.4059391 59.365772 9.1476764e-41
14.133651 -1.4944564 59.477028 9.1476764e-41
16.5518 -1.3341563 60.628078 9.1476764e-41
15.548025 -1.309245 59.07555 9.1476764e-41
13.218502 -1.7251675 61.039757 9.1476764e-41
14.889149 -1.3594489 58.838623 9.1476764e-41
14.301614 -1.7020963 62.127975 9.1476764e-41
14.263214 -1.4491345 59.107021 9.1476764e-41
14.543952 -1.4438341 59.397068 9.1476764e-41
13.028996 -1.7098753 60.622211 9.1476764e-41
17.167959 -1.216002 60.012852 9.1476764e-41
12.96629 -1.5993925 59.245136 9.1476764e-41
15.236864 -1.3538742 59.209507 9.1476764e-41
13.875267 -1.7197152 61.79995 9.1476764e-41
16.531286 -1.4777843 62.290222 9.1476764e-41
15.711604 -1.5949541 62.638447 9.1476764e-41
13.855803 -1.7251462 61.839344 9.1476764e-41
16.549355 -1.3372202 60.661015 9.1476764e-41
19.142365 -1.1519368 61.737923 9.1476764e-41
16.006687 -1.3120896 59.684616 9.1476764e-41
13.981018 -1.7929447 62.793251 9.1476764e-41
13.175377 -1.6031325 59.551502 9.1476764e-41
16.004047 -1.3147715 59.712822 9.1476764e-41
14.861798 -1.4527081 59.900265 9.1476764e-41
12.518216 -2.2360246 66.164368 9.1476764e-41
16.33423 -1.625769 63.782001 9.1476764e-41
12.977856 -2.2773831 67.227272 9.1476764e-41
13.615728 -1.5568764 59.560566 9.1476764e-41
11.241035 -2.013854 61.950554 9.1476764e-41
13.83769 -1.5527155 59.790237 9.1476764e-41
11.081559 -2.0435088 62.098904 9.1476764e-41
9.4848127 -2.4352658 64.698784 9.1476764e-41
13.43591 -1.5632924 59.410286 9.1476764e-41
14.959192 -1.3794801 59.161934 9.1476764e-41
13.684986 -1.4961426 58.933754 9.1476764e-41
14.36789 -1.5239929 60.118114 9.1476764e-41
14.003852 -1.5664505 60.160187 9.1476764e-41
13.157007 -1.5659585 59.091583 9.1476764e-41
13.883915 -1.50666 59.307014 9.1476764e-41
15.370554 -1.3855644 59.74971 9.1476764e-41
15.32373 -1.377985 59.601871 9.1476764e-41
13.96061 -1.5075672 59.413929 9.1476764e-41
16.279606 -1.3297288 60.234432 9.1476764e-41
14.199694 -1.5011362 59.638412 9.1476764e-41
14.500553 -1.5312901 60.370365 9.1476764e-41
14.875369 -1.451197 59.899536 9.1476764e-41
14.454227 -1.4401287 59.240913 9.1476764e-41
13.60275 -1.6294007 60.396568 9.1476764e-41
14.576466 -1.4262226 59.230907 9.1476764e-41
14.072884 -1.5926476 60.554688 9.1476764e-41
15.450788 -1.353758 59.476624 9.1476764e-41
14.058884 -1.5598819 60.152061 9.1476764e-41
16.519806 -1.7809277 65.838303 9.1476764e-41
15.840302 -1.5234028 61.95911 9.1476764e-41
9.4163542 -2.0812297 60.452301 9.1476764e-41
16.867462 -1.3955381 61.745594 9.1476764e-41
15.877607 -1.3428084 59.883617 9.1476764e-41
6.7931318 -3.513308 73.989578 9.1476764e-41
16.762642 -1.2441853 59.835369 9.1476764e-41
17.201944 -1.2135361 60.026527 9.1476764e-41
16.129549 -1.3168632 59.894913 9.1476764e-41
18.122677 -1.3213614 62.449223 9.1476764e-41
14.508693 -1.5281227 60.343361 9.1476764e-41
15.841962 -1.3580464 60.01796 9.1476764e-41
16.410683 -1.2891537 59.922108 9.1476764e-41
13.918854 -1.4744191 58.971977 9.1476764e-41
12.29729 -1.6361923 58.837982 9.1476764e-41
12.400205 -2.4670196 68.730873 9.1476764e-41
11.63686 -1.8186474 60.153297 9.1476764e-41
11.646554 -2.0974777 63.442226 9.1476764e-41
13.866504 -4.2170043 91.136635 9.1476764e-41
18.270927 -2.0019965 70.63398 9.1476764e-41
18.23233 -2.0048697 70.619308 9.1476764e-41
14.719481 -2.0487635 66.726379 9.1476764e-41
13.035875 -1.5618504 58.891281 9.1476764e-41
12.270796 -1.6413798 58.865692 9.1476764e-41
14.650228 -1.4358072 59.436119 9.1476764e-41
12.130565 -1.9830638 62.705105 9.1476764e-41
13.765296 -1.5738592 59.947857 9.1476764e-41
13.87243 -1.9186847 64.134644 9.1476764e-41
13.387664 -2.2566597 67.498062 9.1476764e-41
13.775057 -2.0716264 65.809776 9.1476764e-41
17.201212 -1.5183117 63.607277 9.1476764e-41
15.474425 -1.3514918 59.479656 9.1476764e-41
10.726803 -2.2755404 64.380463 9.1476764e-41
11.014253 -2.4782703 67.123672 9.1476764e-41
15.449046 -1.3669593 59.629574 9.1476764e-41
15.783965 -1.310485 59.386234 9.1476764e-41
14.919292 -1.3965938 59.312973 9.1476764e-41
14.563706 -1.4638412 59.656979 9.1476764e-41
15.9254 -1.2953513 59.385891 9.1476764e-41
13.96927 -1.5060012 59.406399 9.1476764e-41
13.876993 -1.5437964 59.734749 9.1476764e-41
13.793194 -1.5230274 59.385502 9.1476764e-41
14.353365 -1.4207883 58.887043 9.1476764e-41
14.079422 -1.496863 59.437252 9.1476764e-41
14.863762 -1.4156169 59.466839 9.1476764e-41
14.656884 -1.4529665 59.646122 9.1476764e-41
13.973479 -1.4448602 58.693161 9.1476764e-41
14.425366 -1.5353242 60.323414 9.1476764e-41
13.120513 -1.6272024 59.765511 9.1476764e-41
15.306715 -1.3827583 59.636612 9.1476764e-41
19.146183 -1.2100612 62.425781 9.1476764e-41
13.570314 -1.5624318 59.568855 9.1476764e-41
5.5324244 -2.6265464 61.986286 9.1476764e-41
12.212748 -1.7626599 60.218102 9.1476764e-41
16.868576 -1.2455441 59.984287 9.1476764e-41
4.9310527 -2.7160697 62.283604 9.1476764e-41
15.832532 -1.6049434 62.907612 9.1476764e-41
16.161213 -1.3428463 60.240002 9.1476764e-41
11.736972 -1.7879797 59.918541 9.1476764e-41
14.452795 -1.6475763 61.677006 9.1476764e-41
6.7620926 -2.563678 62.790745 9.1476764e-41
13.811943 -1.9529585 64.46151 9.1476764e-41
17.797539 -1.5742708 65.013306 9.1476764e-41
4.9079823 -3.7041171 73.866005 9.1476764e-41
-3.7656229 -4.8405499 76.335457 9.1476764e-41
14.955598 -1.4723285 60.248558 9.1476764e-41
14.302617 -1.5398525 60.222576 9.1476764e-41
16.155033 -1.3764732 60.627422 9.1476764e-41
13.571624 -1.7948974 62.302391 9.1476764e-41
18.2435 -1.1410953 60.482407 9.1476764e-41
16.320574 -1.5548866 62.931862 9.1476764e-41
15.950962 -1.4723823 61.498409 9.1476764e-41
14.287344 -1.508675 59.837013 9.1476764e-41
15.988368 -1.6044643 63.097561 9.1476764e-41
15.687532 -1.5906404 62.557545 9.1476764e-41
14.068519 -1.4645542 59.04388 9.1476764e-41
14.585447 -1.410872 59.061779 9.1476764e-41
14.288379 -1.7030842 62.122974 9.1476764e-41
17.594023 -1.2752442 61.243782 9.1476764e-41
15.135921 -1.3857596 59.457531 9.1476764e-41
13.626188 -1.5692315 59.718887 9.1476764e-41
13.943847 -1.4898871 59.18512 9.1476764e-41
11.963803 -1.7487934 59.74271 9.1476764e-41
13.763118 -1.4868313 58.922386 9.1476764e-41
15.893981 -1.3429455 59.905781 9.1476764e-41
18.853857 -1.1467353 61.314709 9.1476764e-41
17.842724 -1.1658806 60.270687 9.1476764e-41
11.611781 -1.821508 60.155441 9.1476764e-41
13.895316 -1.6336393 60.81356 9.1476764e-41
16.14963 -1.3757273 60.611874 9.1476764e-41
13.427329 -1.5636638 59.403881 9.1476764e-41
13.308311 -1.5567167 59.172871 9.1476764e-41
13.464888 -1.7002679 61.056366 9.1476764e-41
13.967634 -1.4808677 59.108978 9.1476764e-41
13.553983 -1.6061988 60.062698 9.1476764e-41
15.494254 -1.4281566 60.405495 9.1476764e-41
15.550401 -1.8061523 64.918098 9.1476764e-41
13.172251 -1.6147456 59.684052 9.1476764e-41
13.925611 -1.8531965 63.431778 9.1476764e-41
14.645148 -1.5042109 60.233608 9.1476764e-41
17.589853 -1.4271749 63.02401 9.1476764e-41
15.307385 -1.3745419 59.540894 9.1476764e-41
13.136571 -1.5133405 58.447578 9.1476764e-41
17.089474 -1.3729078 61.758278 9.1476764e-41
17.269417 -1.1990606 59.941093 9.1476764e-41
20.383211 -3.2402122 87.836266 9.1476764e-41
18.486372 -2.1145442 72.227013 9.1476764e-41
14.482524 -1.5572338 60.652626 9.1476764e-41
17.648479 -1.2797991 61.365658 9.1476764e-41
15.085358 -1.4418895 60.053699 9.1476764e-41
15.108741 -1.5023633 60.793724 9.1476764e-41
16.905895 -1.2677534 60.292126 9.1476764e-41
16.063412 -1.3402905 60.087219 9.1476764e-41
13.835361 -1.8262852 63.002254 9.1476764e-41
18.164469 -1.1895748 60.952942 9.1476764e-41
15.604515 -1.4607273 60.92664 9.1476764e-41
12.7095 -1.9525439 63.073025 9.1476764e-41
15.425196 -1.4645623 60.746655 9.1476764e-41
13.10728 -1.5950482 59.371029 9.1476764e-41
16.991465 -1.2454579 60.137505 9.1476764e-41
15.837112 -1.3881048 60.365112 9.1476764e-41
15.042499 -1.4761355 60.402363 9.1476764e-41
17.363329 -1.3958988 62.372166 9.1476764e-41
7.8210621 -2.9551322 68.720093 9.1476764e-41
14.047576 -1.5411553 59.917797 9.1476764e-41
18.444475 -1.140471 60.727303 9.1476764e-41
14.410328 -1.4778976 59.629673 9.1476764e-41
17.838835 -1.1368479 59.924622 9.1476764e-41
18.622238 -1.140376 60.949284 9.1476764e-41
12.781837 -1.7025939 60.226448 9.1476764e-41
17.091475 -1.3030567 60.939915 9.1476764e-41
15.603411 -1.4358647 60.633072 9.1476764e-41
17.264994 -1.3199595 61.356323 9.1476764e-41
13.704089 -1.5473913 59.559994 9.1476764e-41
13.462054 -1.670858 60.707191 9.1476764e-41
17.194706 -1.4023396 62.236225 9.1476764e-41
14.187372 -1.5607066 60.323009 9.1476764e-41
13.20976 -1.8745151 62.78389 9.1476764e-41
10.698857 -2.2720697 64.304604 9.1476764e-41
15.154172 -1.4038608 59.693157 9.1476764e-41
14.305022 -1.5065665 59.834423 9.1476764e-41
13.191201 -1.6106012 59.65913 9.1476764e-41
15.605822 -1.4611371 60.933094 9.1476764e-41
13.042671 -1.9150465 63.050507 9.1476764e-41
16.73682 -1.4501435 62.223347 9.1476764e-41
16.553015 -1.841445 66.591164 9.1476764e-41
13.816315 -1.653904 60.95256 9.1476764e-41
12.193961 -1.977465 62.718876 9.1476764e-41
17.963581 -1.4827662 64.146347 9.1476764e-41
17.430088 -1.1769614 59.883038 9.1476764e-41
13.495441 -1.8008901 62.277203 9.1476764e-41
18.919743 -1.14784 61.410378 9.1476764e-41
16.037678 -1.4418584 61.248531 9.1476764e-41
19.412714 -1.1344649 61.871891 9.1476764e-41
16.201385 -1.3377515 60.230545 9.1476764e-41
15.832102 -1.2952791 59.267952 9.1476764e-41
13.92062 -1.740097 62.09639 9.1476764e-41
14.313355 -1.6196911 61.174301 9.1476764e-41
16.033386 -1.4466835 61.29985 9.1476764e-41
15.798785 -1.3179134 59.492134 9.1476764e-41
16.066917 -1.4074622 60.881008 9.1476764e-41
13.12433 -1.8636975 62.549549 9.1476764e-41
15.576012 -1.4428581 60.68087 9.1476764e-41
14.692445 -1.5321567 60.621384 9.1476764e-41
9.0713625 -2.3783064 63.510513 9.1476764e-41
16.155155 -1.3778605 60.643879 9.1476764e-41
15.380455 -1.2247783 57.872608 9.1476764e-41
15.636099 -1.1866685 57.74559 9.1476764e-41
15.519993 -1.2040099 57.803665 9.1476764e-41
12.661992 -1.8173968 61.425179 9.1476764e-41
18.079275 -1.1848971 60.79105 9.1476764e-41
13.659485 -1.5773817 59.856457 9.1476764e-41
15.670936 -1.3588047 59.812222 9.1476764e-41
14.079895 -1.4038855 58.345188 9.1476764e-41
17.725945 -1.1363451 59.777031 9.1476764e-41
15.719683 -1.4121989 60.500881 9.1476764e-41
18.160543 -1.140698 60.373623 9.1476764e-41
19.09251 -1.2029606 62.274975 9.1476764e-41
14.590338 -1.5267078 60.429199 9.1476764e-41
14.784661 -1.2992704 58.000282 9.1476764e-41
15.428024 -1.2085543 57.741646 9.1476764e-41
14.249684 -1.5748708 60.567669 9.1476764e-41
15.602142 -1.3661278 59.811947 9.1476764e-41
15.244744 -1.2426946 57.912834 9.1476764e-41
15.066091 -1.2591605 57.882122 9.1476764e-41
15.896736 -1.3639909 60.156559 9.1476764e-41
16.18799 -1.2240971 58.878086 9.1476764e-41
15.814959 -1.2996497 59.297798 9.1476764e-41
13.096693 -1.7225027 60.855568 9.1476764e-41
15.967548 -1.7595739 64.894249 9.1476764e-41
9.9956398 -2.271611 63.416649 9.1476764e-41
17.068571 -1.3456782 61.412048 9.1476764e-41
12.252474 -1.952605 62.50016 9.1476764e-41
14.557788 -1.5728825 60.930988 9.1476764e-41
14.125546 -1.5237592 59.811218 9.1476764e-41
17.646469 -1.3729017 62.457256 9.1476764e-41
18.267456 -1.4816428 64.514526 9.1476764e-41
13.932259 -1.6132582 60.620411 9.1476764e-41
17.301458 -1.3848995 62.165253 9.1476764e-41
17.062645 -1.3959724 61.995659 9.1476764e-41
-3.4768343 -4.1297679 68.344917 9.1476764e-41
17.963104 -1.2345843 61.229164 9.1476764e-41
11.543276 -1.8678784 60.614399 9.1476764e-41
2.1977751 -6.1842775 99.610985 9.1476764e-41
15.878263 -1.4804095 61.501503 9.1476764e-41
15.544697 -1.4056789 60.204643 9.1476764e-41
14.405025 -1.4879473 59.741119 9.1476764e-41
16.503796 -1.2966571 60.127144 9.1476764e-41
16.547531 -1.3532709 60.847351 9.1476764e-41
16.702543 -1.3384821 60.868103 9.1476764e-41
10.146137 -2.344779 64.465385 9.1476764e-41
16.507286 -1.3269746 60.487812 9.1476764e-41
12.428867 -2.0428288 63.781834 9.1476764e-41
16.052851 -1.3816024 60.559456 9.1476764e-41
16.858509 -1.4196403 62.017601 9.1476764e-41
17.628677 -1.1413523 59.713802 9.1476764e-41
8.4179897 -2.5315995 64.491982 9.1476764e-41
14.776205 -1.4203265 59.412296 9.1476764e-41
13.892553 -1.6656927 61.186779 9.1476764e-41
11.604391 -2.1490245 63.995075 9.1476764e-41
16.454893 -1.621749 63.886192 9.1476764e-41
13.945031 -1.5234289 59.580784 9.1476764e-41
15.749212 -1.1696639 57.687714 9.1476764e-41
12.559971 -1.6393961 59.205307 9.1476764e-41
14.407752 -1.461267 59.431 9.1476764e-41
14.877933 -1.4303728 59.658031 9.1476764e-41
13.731427 -1.4714326 58.701653 9.1476764e-41
13.38011 -1.5521446 59.209248 9.1476764e-41
18.78183 -1.1392161 61.135948 9.1476764e-41
16.830564 -1.2397346 59.868313 9.1476764e-41
17.000959 -1.2353822 60.031017 9.1476764e-41
16.229597 -1.3390228 60.280891 9.1476764e-41
14.985349 -1.4454305 59.969799 9.1476764e-41
14.001496 -1.5194573 59.604977 9.1476764e-41
12.011092 -1.8186427 60.622917 9.1476764e-41
17.119354 -1.2517693 60.372181 9.1476764e-41
18.862906 -1.1948022 61.890934 9.1476764e-41
15.473288 -1.4128441 60.199226 9.1476764e-41
13.976233 -1.5003347 59.348545 9.1476764e-41
18.739183 -1.1925989 61.70977 9.1476764e-41
15.143456 -1.3932062 59.554497 9.1476764e-41
17.854382 -1.1368191 59.943794 9.1476764e-41
15.731419 -1.1721787 57.694939 9.1476764e-41
14.011529 -1.5187203 59.608906 9.1476764e-41
12.866929 -1.76798 61.101646 9.1476764e-41
3.1382823 -3.0873728 64.397095 9.1476764e-41
14.161278 -1.4756011 59.290119 9.1476764e-41
10.160744 -2.4522562 65.746773 9.1476764e-41
14.556159 -1.5367417 60.504223 9.1476764e-41
14.085787 -1.6561201 61.316799 9.1476764e-41
14.814488 -1.281213 57.825508 9.1476764e-41
7.0526104 -2.819176 66.157921 9.1476764e-41
12.103145 -1.9318031 62.068287 9.1476764e-41
15.544099 -1.4842318 61.127037 9.1476764e-41
17.132107 -1.3819106 61.917583 9.1476764e-41
16.414545 -1.2929369 59.971416 9.1476764e-41
15.407571 -1.3700554 59.613907 9.1476764e-41
8.0174379 -2.6270044 65.110451 9.1476764e-41
13.823373 -1.8344285 63.082909 9.1476764e-41
14.115279 -1.7848293 62.866379 9.1476764e-41
17.257362 -1.7938477 66.915794 9.1476764e-41
4.7266459 -3.0046587 65.41851 9.1476764e-41
23.359692 -1.0323348 65.625282 9.1476764e-41
7.5178847 -2.4081635 61.911716 9.1476764e-41
3.4987791 2.1439159 3.3723831 9.1476764e-41
-4.3252611 1.2734202 3.78283 9.1476764e-41
-3.2047665 1.2156395 5.8681202 9.1476764e-41
-3.0943077 1.4485083 3.2701185 9.1476764e-41
-1.7103889 1.4825817 4.6065631 9.1476764e-41
-3.2925642 1.351048 4.1666346 9.1476764e-41
2.5184019 1.9487195 4.4358854 9.1476764e-41
-2.4978545 1.4107755 4.4621172 9.1476764e-41
-1.7590739 1.5830754 3.3644779 9.1476764e-41
-2.8318794 1.2751673 5.6365466 9.1476764e-41
-2.9307072 1.2481989 5.829443 9.1476764e-41
-2.7687705 1.2932917 5.5027575 9.1476764e-41
-2.9251521 1.3214911 4.9750972 9.1476764e-41
-3.4849741 1.2582436 5.0157738 9.1476764e-41
-4.5015998 1.1730542 4.7410016 9.1476764e-41
0.48199219 1.7030822 4.7668018 9.1476764e-41
-3.000972 1.4629838 3.2171433 9.1476764e-41
-2.4357009 1.5155278 3.3090925 9.1476764e-41
-2.719841 1.2840266 5.6730471 9.1476764e-41
-3.227324 1.2120905 5.8815165 9.1476764e-41
-1.7166266 1.501969 4.3708992 9.1476764e-41
-2.2606876 1.4049909 4.8277507 9.1476764e-41
-1.0100733 1.5509608 4.6819072 9.1476764e-41
-2.77738 1.2886404 5.5466137 9.1476764e-41
-7.7484813 0.69015598 6.3409762 9.1476764e-41
-4.3790178 1.198845 4.5917563 9.1476764e-41
