# .PCD v0.7 - Point Cloud Data file format
VERSION 0.7
FIELDS x y z rgb
SIZE 4 4 4 4
TYPE F F F F
COUNT 1 1 1 1
WIDTH 265
HEIGHT 1
VIEWPOINT 0 0 0 1 0 0 0
POINTS 265
DATA ascii
0 0 0 16777215
0.25720724 -0.15587321 -0.022454118 16777215
0.35101724 -0.14673106 -0.016293531 16777215
0.4159269 -0.14412671 -0.01559522 16777215
0.48334536 -0.14092135 -0.010049948 16777215
0.53501976 -0.13294287 -0.0055218046 16777215
0.56043255 -0.12956923 -0.0048446725 16777215
0.54779887 -0.13403957 0.016742853 16777215
0.52864283 -0.12559858 0.036861066 16777215
0.4873074 -0.11914781 0.061380923 16777215
0.43924364 -0.13581911 0.093497477 16777215
0.38226947 -0.14472371 0.12283798 16777215
0.26660639 -0.1788877 0.18217891 16777215
0.19402272 -0.21495256 0.21268077 16777215
0.15926518 -0.25486848 0.22953068 16777215
0.16142249 -0.3021332 0.23364669 16777215
0.18442608 -0.31522423 0.2242029 16777215
0.20034243 -0.31284198 0.22146347 16777215
0.24291876 -0.29072616 0.21901193 16777215
0.24891394 -0.24284607 0.2225384 16777215
0.24349001 -0.23204 0.23423797 16777215
0.21595138 -0.21285193 0.2694059 16777215
0.19110413 -0.20861512 0.29598007 16777215
0.16375554 -0.19685888 0.37546611 16777215
0.15980206 -0.18721706 0.42064339 16777215
0.18738362 -0.18997768 0.51111639 16777215
0.23094045 -0.20830488 0.63761306 16777215
0.28288674 -0.20346937 0.7686035 16777215
0.30708891 -0.22251666 0.8931489 16777215
0.351818 -0.25680885 1.026058 16777215
0.42905915 -0.30675694 1.2028061 16777215
0.48060653 -0.33998165 1.4157319 16777215
0.58367258 -0.40061501 1.8549904 16777215
0.66514421 -0.50782913 2.202534 16777215
0.78499895 -0.59317243 2.5175114 16777215
1.0251696 -0.68188024 3.1344268 16777215
1.1392622 -0.79339004 3.4540277 16777215
1.3432707 -0.96623051 4.0507312 16777215
1.4734941 -1.0560923 4.5923319 16777215
1.583908 -1.1939886 5.3779016 16777215
1.6761851 -1.2843328 5.9453802 16777215
1.7473155 -1.4775982 6.7112288 16777215
1.8106294 -1.5314567 7.1918063 16777215
1.9466642 -1.5911325 7.5063853 16777215
2.0359495 -1.6761771 7.8157816 16777215
2.0933776 -1.7868346 8.1340704 16777215
2.182822 -1.8264015 8.4352102 16777215
2.2347963 -1.8758504 8.731802 16777215
2.3931851 -2.0059195 9.0243206 16777215
2.397902 -2.089422 9.2363214 16777215
2.4839976 -2.1950831 9.4715176 16777215
2.5170832 -2.2485044 9.7183924 16777215
2.6047199 -2.3334475 10.132552 16777215
2.7345908 -2.4534373 10.570903 16777215
2.8212879 -2.561965 10.947225 16777215
2.9285145 -2.6532905 11.341846 16777215
2.9808226 -2.7072704 11.823062 16777215
3.2083123 -2.8692198 12.383451 16777215
3.2902744 -3.0388024 12.813199 16777215
3.319726 -3.0840878 13.183351 16777215
3.4172871 -3.1604235 13.88822 16777215
3.5342832 -3.2759056 14.373378 16777215
3.6429572 -3.423667 14.909201 16777215
3.726135 -3.4808142 15.348825 16777215
3.8802366 -3.5176947 15.779327 16777215
3.962791 -3.6744723 16.123842 16777215
4.0644598 -3.7030659 16.456305 16777215
4.0772829 -3.7623889 16.888117 16777215
4.1064353 -3.8831244 17.376839 16777215
4.1567702 -4.012908 17.726562 16777215
4.1625896 -4.1059136 18.098454 16777215
4.2730789 -4.1661239 18.514605 16777215
4.4573774 -4.2982717 18.881065 16777215
4.4905767 -4.4139328 19.262049 16777215
4.5812283 -4.4366937 19.599546 16777215
4.6097059 -4.4975629 20.083347 16777215
4.6868253 -4.5444326 20.386932 16777215
4.7121677 -4.6648912 20.714108 16777215
4.803472 -4.7128525 21.099136 16777215
4.8782153 -4.765533 21.502699 16777215
5.0224514 -4.8380227 21.853531 16777215
5.0660276 -4.9748764 22.237701 16777215
5.1184859 -5.0236192 22.650408 16777215
5.1755977 -5.1530147 23.269342 16777215
5.2103138 -5.1670609 23.500881 16777215
5.240613 -5.2421956 23.871994 16777215
5.3047714 -5.2372103 24.389868 16777215
5.4234824 -5.3401895 24.852154 16777215
5.4797988 -5.4412413 25.239088 16777215
5.5392556 -5.4835191 25.738392 16777215
5.5773606 -5.5359964 26.214624 16777215
5.6165781 -5.6466417 26.541012 16777215
5.7092667 -5.7380881 26.999798 16777215
5.8862448 -5.7612143 27.518015 16777215
5.9284697 -5.8986611 27.89432 16777215
5.9706736 -5.9749875 28.345615 16777215
5.9700718 -6.0109577 28.755205 16777215
6.0449877 -6.089324 29.096739 16777215
6.0797834 -6.1907802 29.421524 16777215
6.1083508 -6.2551694 29.793303 16777215
6.1390538 -6.2767463 30.169825 16777215
6.2513804 -6.3963518 30.551123 16777215
6.305788 -6.5054879 30.880072 16777215
6.3219171 -6.5287304 31.269674 16777215
6.3745112 -6.6196623 31.65497 16777215
6.3977814 -6.7049022 31.947468 16777215
6.4443521 -6.7908583 32.327995 16777215
6.541873 -6.858531 32.786442 16777215
6.576735 -6.9342766 33.074821 16777215
6.6378961 -7.0221848 33.471626 16777215
6.6558499 -7.0728087 34.032856 16777215
6.7031112 -7.2109017 34.456432 16777215
6.706646 -7.3145833 34.747631 16777215
6.7281866 -7.3865066 35.176655 16777215
6.8146567 -7.398541 35.627724 16777215
6.8410702 -7.478796 36.008541 16777215
6.8538041 -7.5456691 36.348484 16777215
6.8733754 -7.5856185 36.806931 16777215
6.8791814 -7.7342615 37.251282 16777215
6.9319377 -7.819016 37.655357 16777215
7.0300865 -7.8195763 38.090794 16777215
7.1266556 -7.9078145 38.471432 16777215
7.2156425 -7.9909019 38.833027 16777215
7.2592654 -8.0155439 39.304512 16777215
7.258863 -8.1206589 39.769527 16777215
7.3033195 -8.1943913 40.174644 16777215
7.3747301 -8.189909 40.631847 16777215
7.4514213 -8.2136459 40.997665 16777215
7.5004759 -8.2613029 41.468163 16777215
7.4578552 -8.2960243 41.914169 16777215
7.5262742 -8.3306627 42.286942 16777215
7.5349879 -8.4044256 42.66423 16777215
7.5387011 -8.4398403 42.99408 16777215
7.6041837 -8.4602261 43.365444 16777215
7.702816 -8.5131569 43.695232 16777215
7.746706 -8.5892572 44.058334 16777215
7.7820368 -8.631134 44.408569 16777215
7.8040032 -8.672184 44.906689 16777215
7.8409824 -8.7826576 45.371811 16777215
7.9000578 -8.8326254 45.789371 16777215
7.9754343 -8.9060469 46.261749 16777215
7.9947414 -8.9836264 46.636139 16777215
7.9690018 -9.0009584 47.225502 16777215
7.985981 -9.068676 47.627769 16777215
8.018939 -9.1465797 47.917782 16777215
8.0416479 -9.1846018 48.227245 16777215
8.0418081 -9.176569 48.544292 16777215
8.1835299 -9.2626638 48.974697 16777215
8.1912594 -9.3580275 49.275387 16777215
8.2157269 -9.3823128 49.701157 16777215
8.2435226 -9.455658 50.149757 16777215
8.267272 -9.5094738 50.513313 16777215
8.280797 -9.5231276 50.872593 16777215
8.3345137 -9.6069174 51.118629 16777215
8.3744926 -9.6812201 51.346954 16777215
8.3958282 -9.6701012 51.700787 16777215
8.4181538 -9.6754742 52.071941 16777215
8.4147968 -9.7188988 52.407257 16777215
8.4913616 -9.8017778 52.803314 16777215
8.4807653 -9.8122082 53.224739 16777215
8.5653305 -9.8383617 53.741558 16777215
8.5444984 -9.8904295 54.08952 16777215
8.545351 -9.9513388 54.517391 16777215
8.5783901 -9.9878998 54.932323 16777215
8.5788593 -10.073849 55.222015 16777215
8.6012917 -10.110023 55.618847 16777215
8.5592299 -10.112884 56.079685 16777215
8.6215115 -10.238747 56.485519 16777215
8.625968 -10.260816 56.916973 16777215
8.6366539 -10.295604 57.369583 16777215
8.5822315 -10.339993 57.71019 16777215
8.586031 -10.367639 58.007702 16777215
8.5868473 -10.348355 58.475033 16777215
8.7120066 -10.432182 58.835129 16777215
8.7287092 -10.481106 59.194515 16777215
8.7196007 -10.45889 59.628712 16777215
8.7218266 -10.501516 59.934673 16777215
8.7349892 -10.568058 60.179756 16777215
8.7861738 -10.595626 60.46035 16777215
8.8349171 -10.593668 60.848648 16777215
8.9174557 -10.647886 61.182289 16777215
8.9009333 -10.702188 61.446762 16777215
8.928443 -10.713517 61.763672 16777215
8.9031849 -10.697803 62.112244 16777215
8.9008656 -10.731505 62.489113 16777215
8.899847 -10.836595 62.839497 16777215
8.9648666 -10.870163 63.163544 16777215
8.994359 -10.897197 63.508785 16777215
9.0526686 -11.009601 63.8522 16777215
9.0286207 -11.018149 64.219772 16777215
8.9287596 -11.024691 64.678139 16777215
8.9853888 -11.072348 64.949829 16777215
8.9749012 -11.106253 65.307648 16777215
9.0366116 -11.103452 65.860634 16777215
9.0764713 -11.175245 66.314972 16777215
9.0261126 -11.163599 66.754982 16777215
9.089467 -11.173038 67.316437 16777215
9.0894899 -11.278925 67.719543 16777215
9.1502733 -11.272423 68.166862 16777215
9.2045021 -11.272758 68.511475 16777215
9.2778854 -11.354311 68.989281 16777215
9.2108688 -11.368026 69.499657 16777215
9.1890621 -11.398097 70.004669 16777215
9.1634703 -11.480277 70.371826 16777215
9.1844759 -11.466434 70.848686 16777215
9.20965 -11.539906 71.252762 16777215
9.2520628 -11.582917 71.576614 16777215
9.2358704 -11.583851 71.860008 16777215
9.2361708 -11.645918 72.314903 16777215
9.2480898 -11.683469 72.634392 16777215
9.2429285 -11.714497 72.929077 16777215
9.2847195 -11.700962 73.145226 16777215
9.2898912 -11.738621 73.439713 16777215
9.276185 -11.758335 73.599281 16777215
9.2411013 -11.78471 73.844025 16777215
9.2017689 -11.781851 74.130615 16777215
9.2004042 -11.802211 74.417816 16777215
9.1397142 -11.868274 74.803085 16777215
9.1311769 -11.872872 75.09005 16777215
9.1527767 -11.865361 75.479446 16777215
9.1026659 -11.89867 75.781609 16777215
9.1033134 -11.90417 76.229401 16777215
9.1193428 -11.910136 76.657234 16777215
9.0406418 -11.939548 77.070335 16777215
9.0526705 -11.957369 77.457596 16777215
9.0752478 -11.917569 77.943977 16777215
9.1374054 -11.997939 78.320389 16777215
9.1291952 -12.021251 78.694717 16777215
9.095047 -12.033753 79.242462 16777215
9.0940142 -12.114449 79.603737 16777215
9.0700369 -12.125468 79.959358 16777215
9.0593061 -12.143638 80.276482 16777215
9.0719233 -12.197774 80.547966 16777215
9.0935888 -12.198492 80.762184 16777215
9.0854416 -12.206929 81.008377 16777215
9.0957718 -12.242615 81.194786 16777215
9.0788078 -12.275555 81.416985 16777215
9.0445957 -12.310264 81.664375 16777215
9.0583773 -12.351098 81.950562 16777215
9.0909491 -12.352736 82.201103 16777215
9.1378965 -12.391419 82.431496 16777215
9.1514606 -12.415739 82.667496 16777215
9.1348848 -12.395748 83.000229 16777215
9.1230955 -12.437832 83.256477 16777215
9.0841951 -12.445747 83.454491 16777215
9.096633 -12.470987 83.687927 16777215
9.0704536 -12.460699 84.002357 16777215
9.0260124 -12.508644 84.266312 16777215
9.1026611 -12.507129 84.592857 16777215
9.0482187 -12.502651 84.843575 16777215
9.009141 -12.490191 85.153145 16777215
8.9439573 -12.523018 85.36718 16777215
8.8752041 -12.514564 85.631363 16777215
8.8307781 -12.479544 85.860756 16777215
8.8056231 -12.500503 86.076088 16777215
8.8609648 -12.522902 86.291107 16777215
8.836278 -12.520342 86.466637 16777215
8.7628326 -12.467236 86.661293 16777215
8.7310619 -12.455918 86.80571 16777215
8.6968346 -12.473954 86.945534 16777215
8.6460981 -12.47514 87.018097 16777215
8.6327 -12.471023 87.088303 16777215
8.6553946 -12.463627 87.153946 16777215
8.6837606 -12.464361 87.20932 16777215
8.6817656 -12.456573 87.226418 16777215
