# .PCD v0.7 - Point Cloud Data file format
VERSION 0.7
FIELDS x y z rgb
SIZE 4 4 4 4
TYPE F F F F
COUNT 1 1 1 1
WIDTH 1189
HEIGHT 1
VIEWPOINT 0 0 0 1 0 0 0
POINTS 1189
DATA ascii
26.605694 -15.088555 54.649651 16711746
13.085654 0.48018819 30.594151 16711746
9.9064312 0.60800183 27.482481 16711746
9.7380362 0.49919131 28.847149 16711746
3.4386575 -0.3929247 31.954096 16711746
8.2098484 0.53601992 25.237976 16711746
1.9823287 -0.19059935 27.218313 16711746
5.795073 0.15663104 27.55896 16711746
6.179719 0.37205973 25.059269 16711746
6.7797031 0.12487087 29.993305 16711746
9.6399155 0.77909839 24.712879 16711746
5.4020085 0.16697077 26.765455 16711746
5.4255357 0.36810219 25.183756 16711746
7.5889616 0.3430779 25.235456 16711746
8.5476265 0.40358028 25.349232 16711746
5.8182764 0.23285323 26.667253 16711746
5.343544 0.20234165 25.833799 16711746
5.8535199 0.20779213 26.548342 16711746
8.3260765 0.60398388 25.554636 16711746
7.6365323 -2.8625422 26.122562 16711746
9.1278801 0.37408501 29.992567 16711746
10.676416 0.71485758 26.201382 16711746
9.8337069 0.24837072 33.239506 16711746
13.087661 0.58106416 29.252836 16711746
0.030592505 -8.0620079 81.032089 16711746
11.08439 -1.5068206 35.74271 16711746
15.010421 0.2035566 32.363449 16711746
6.8247085 0.2746788 25.495747 16711746
8.5602751 0.5972417 25.819929 16711746
4.691556 0.20372161 26.212831 16711746
3.7199342 0.16047138 26.310774 16711746
9.2030544 0.50839227 26.150169 16711746
6.2999029 0.33337823 25.927347 16711746
2.4693205 0.0086350152 26.514925 16711746
8.8942451 0.53184795 26.269567 16711746
5.7847271 0.31594372 25.634554 16711746
4.6670499 0.1221099 27.438587 16711746
10.632048 0.74941701 27.092197 16711746
6.1166472 0.33486062 25.306665 16711746
4.7111816 0.094728194 27.361292 16711746
4.2669802 0.046672799 27.103563 16711746
3.5331655 -0.061333198 29.73234 16711746
4.3729568 0.22478154 25.455147 16711746
6.3744435 0.34480205 26.75334 16711746
4.4172387 0.044475686 27.764885 16711746
5.8537021 0.32341421 25.308609 16711746
3.1131635 -0.78406268 29.562088 16711746
4.8921728 0.12801862 26.821888 16711746
5.2275982 0.13077539 25.5637 16711746
4.1552267 -3.0286534 27.284237 16711746
5.2267666 0.25785232 26.294968 16711746
6.371748 0.35558584 26.801168 16711746
11.063493 -1.6480618 27.133282 16711746
2.3930769 -0.50366277 31.870571 16711746
9.2442694 0.61973256 25.956787 16711746
7.2413855 0.36738172 25.077887 16711746
8.1527939 0.51952708 25.659636 16711746
13.541376 0.83638459 30.312708 16711746
5.3582273 0.19553433 25.817579 16711746
8.6930342 0.43073758 27.223434 16711746
10.632451 0.72645009 27.027323 16711746
6.0837693 0.3262004 25.916826 16711746
8.9210482 0.42029068 27.140884 16711746
4.9886098 -0.43907148 35.661324 16711746
5.1059837 -0.19745712 31.08082 16711746
9.1195879 0.33637515 29.828144 16711746
-15.549311 -5.9210835 48.987282 16711746
-0.79557276 -0.46357188 27.708275 16711746
9.3420134 0.49780977 26.210678 16711746
0.73681027 -0.26401746 26.53231 16711746
-14.914068 -5.044651 46.490383 16711746
15.05255 0.8313278 30.734776 16711746
10.411847 0.28281829 26.961708 16711746
4.4927726 -0.74088609 35.505856 16711746
2.4552424 0.01446964 26.528141 16711746
-5.96456 -11.932746 64.985657 16711746
8.0626831 0.29405662 28.14535 16711746
-0.78612739 -0.44970605 27.68565 16711746
9.6398869 0.68211049 27.135479 16711746
8.2025499 0.35775775 26.411011 16711746
1.3716483 -0.2757808 27.680216 16711746
5.2648058 0.039290581 27.990063 16711746
7.7320943 0.27485591 27.047188 16711746
9.9941273 0.50549626 24.909821 16711746
1.2285091 -0.9005298 29.303892 16711746
9.5330467 0.56585729 26.85515 16711746
13.170893 0.84763187 29.589506 16711746
1.1003637 -0.61072969 34.383232 16711746
9.6757889 0.70151985 25.721395 16711746
11.906091 0.60256189 30.012852 16711746
8.6758137 0.4723393 26.526865 16711746
7.6682491 0.32664341 26.782185 16711746
0.96755147 -7.11274 35.769344 16711746
3.8525689 -0.90552258 30.724539 16711746
6.508965 -6.2663388 36.047836 16711746
-1.0005587 -4.9701939 34.227833 16711746
-0.87448388 -4.6022501 38.47081 16711746
9.3166313 0.66982901 25.490995 16711746
5.6592002 -0.81831217 32.619114 16711746
7.744638 0.33638355 27.192949 16711746
5.2610416 -0.71441984 34.657673 16711746
8.0829077 0.36887366 27.425146 16711746
5.8341017 0.23709662 26.608982 16711746
8.0918045 -0.014595761 30.786377 16711746
6.3296328 -2.5574942 32.672432 16711746
5.7563558 -0.31665522 32.220135 16711746
12.14301 0.23404086 33.247715 16711746
8.0861444 0.35477868 27.390108 16711746
10.883395 0.11303136 35.329414 16711746
-20.868319 -9.8547974 53.24012 16711746
1.9776701 -7.1273355 43.133617 16711746
0.64021343 -7.5040975 48.676701 16711746
-13.74868 -6.3463264 36.390762 16711746
9.896883 0.67198616 27.006491 16711746
6.3296585 0.29732102 25.852329 16711746
2.1743605 -0.20405847 28.030142 16711746
9.4099808 0.63510817 25.851744 16711746
12.748719 0.84235644 27.713804 16711746
5.6471896 0.21789749 26.616156 16711746
8.230834 0.45312968 26.655573 16711746
8.3018627 0.53247648 26.132887 16711746
5.0783854 0.18295544 25.66832 16711746
6.2234159 0.27871045 27.065969 16711746
4.0948029 0.21616597 25.64463 16711746
9.9528141 0.63173342 27.531239 16711746
4.9019675 -0.11785965 29.073179 16711746
4.3236341 -0.062241789 24.613697 16711746
8.2639456 0.54582417 26.873781 16711746
-0.55633205 -0.5293529 27.523754 16711746
2.0525837 -6.1596494 47.414795 16711746
10.861361 0.015257365 27.664583 16711746
12.08932 0.31985077 34.016411 16711746
12.171632 0.12754041 33.249588 16711746
42.927628 -13.038518 62.604687 16711746
-0.84354091 -4.689136 60.683605 16711746
-9.5816555 -9.5274429 62.354801 16711746
12.418865 0.41687489 31.346127 16711746
10.503209 0.50390136 29.816589 16711746
4.8976059 0.21627685 25.584354 16711746
14.06725 0.76727408 29.82196 16711746
6.0520725 0.11671458 29.222454 16711746
4.5186491 0.16726349 25.824234 16711746
1.2746873 -6.9559245 35.450142 16711746
3.488323 -0.75366414 33.044411 16711746
3.1993933 -5.3849802 31.099045 16711746
4.0370398 0.16962717 25.799646 16711746
15.525839 0.69714141 33.342056 16711746
4.4520926 0.26640746 25.103151 16711746
4.924911 0.30575478 25.02133 16711746
7.6809311 0.266532 26.59869 16711746
4.1748915 -0.166347 30.530569 16711746
1.4807553 -0.39358318 30.603354 16711746
1.1744478 -0.31489271 26.258442 16711746
8.9011011 0.54970187 26.306166 16711746
3.809937 0.18211937 25.808321 16711746
6.7899375 0.34118557 27.009079 16711746
5.2480855 -0.09140598 29.652754 16711746
5.3885169 0.16893931 26.044788 16711746
3.5402315 0.11842456 26.619261 16711746
11.862451 0.64668232 30.096378 16711746
8.4672146 0.40360656 27.366962 16711746
5.515069 0.34025702 25.283033 16711746
8.2966423 0.47465625 26.78599 16711746
10.495245 0.58779007 28.378963 16711746
6.8133688 0.32036945 26.910683 16711746
4.7590013 0.010857354 27.481518 16711746
8.0267715 0.18971862 28.470686 16711746
9.4172621 0.5689882 26.651903 16711746
0.95820391 -0.6142742 34.341755 16711746
13.196324 0.86390716 28.905668 16711746
2.5041702 0.038640011 26.499775 16711746
-0.64531446 -0.5384472 27.50317 16711746
4.8479166 0.31184164 24.641033 16711746
4.712326 0.18588561 26.179508 16711746
10.147591 0.62311941 27.308163 16711746
-1.6036066 -1.5956748 39.804375 16711746
-3.7364454 -15.988049 72.737892 16711746
5.280549 -0.081287481 29.593172 16711746
9.6242695 0.64240426 26.764538 16711746
8.1749773 0.18594763 28.864925 16711746
15.523063 -5.243567 32.928654 16711746
5.294199 0.23865527 25.918686 16711746
10.528458 0.63147753 27.899031 16711746
5.3298879 0.21463414 25.870714 16711746
1.6621852 -0.23227203 27.602076 16711746
8.7531443 0.49749288 26.83551 16711746
4.2442412 0.016782366 25.462198 16711746
6.2413197 0.25597575 27.014936 16711746
4.1859999 0.14893404 26.240301 16711746
8.9021931 0.48445103 28.033529 16711746
8.60812 0.58657354 26.460419 16711746
5.0474496 0.044309102 27.280716 16711746
5.8231635 0.1633548 27.602104 16711746
9.2490482 0.55030984 27.381012 16711746
3.4777505 -0.22728451 29.488739 16711746
6.3159871 0.3613553 27.527897 16711746
-0.92031693 -0.72497916 29.831194 16711746
8.9928684 0.52085137 27.318777 16711746
3.2732136 -0.057365149 27.891621 16711746
4.0878325 0.14469904 25.748201 16711746
0.70472646 -0.68717897 32.751385 16711746
8.9342861 0.39812031 27.095922 16711746
5.1039705 0.096733503 27.551474 16711746
5.2809124 0.22803073 26.193808 16711746
6.2619362 0.30752257 26.371181 16711746
10.194675 0.44533807 27.519272 16711746
9.6915083 0.39352795 26.983822 16711746
1.7809577 -4.6226315 37.646431 16711746
-11.553692 -10.028387 54.888947 16711746
12.143577 0.20952052 33.202316 16711746
10.996973 0.65062779 27.860411 16711746
11.243885 -0.1707691 38.956951 16711746
-1.1322542 -4.9707065 36.358963 16711746
10.783106 0.40809697 31.210257 16711746
8.4781733 0.43750548 27.458576 16711746
5.3844738 0.1668788 27.204269 16711746
10.310146 0.47289792 30.019796 16711746
2.0135036 -0.85659432 31.090111 16711746
10.468946 0.63967425 27.891691 16711746
11.761481 0.92401546 28.092306 16711746
14.641037 0.80314368 30.470535 16711746
11.714362 0.50759935 29.742025 16711746
5.7320113 0.087612398 27.511276 16711746
6.4597235 0.31632259 26.954113 16711746
9.632082 0.68723887 27.092937 16711746
5.1815262 0.30723828 26.018789 16711746
2.143584 -0.73598838 34.003166 16711746
0.83484232 -0.83016008 33.164669 16711746
4.3183932 -0.090560973 29.506413 16711746
10.536304 0.64012778 27.915924 16711746
5.8953624 0.27315065 26.909849 16711746
1.9892358 -0.388129 29.720505 16711746
7.7756662 0.34865871 27.763878 16711746
4.3355212 0.023373714 27.038979 16711746
7.7403393 0.32874855 27.205212 16711746
8.7263813 0.0099866008 31.181059 16711746
4.332819 0.058129229 25.56645 16711746
3.6321735 -4.2595286 32.364841 16711746
3.824297 -4.4342546 30.244381 16711746
8.5754881 0.3657921 28.412163 16711746
9.467226 0.63423747 26.767933 16711746
13.895275 0.68483829 29.603289 16711746
3.5164804 -0.2028808 29.96125 16711746
9.8454647 0.24777111 33.277473 16711746
-11.444263 -2.6887221 39.818954 16711746
-10.017818 -10.674333 74.605965 16711746
-14.888041 -9.0583382 49.333439 16711746
-25.85721 -13.404238 57.052135 16711746
6.135941 0.30059278 26.655704 16711746
6.4744015 0.29571143 26.587498 16711746
10.659006 0.78947645 27.173021 16711746
7.5511494 0.21533412 28.630421 16711746
5.1709437 0.065869316 27.761921 16711746
4.2723427 0.019539138 26.652462 16711746
8.704587 -2.1327279 26.388384 16711746
9.8575907 0.5198198 27.316597 16711746
9.0687523 0.66155028 27.677166 16711746
1.9765025 -4.1415181 31.11902 16711746
5.0393629 0.070863143 27.564043 16711746
5.2928371 -0.03521375 28.756428 16711746
4.884614 -0.016868023 28.353365 16711746
13.622927 0.7180258 30.392422 16711746
8.9911356 0.48878747 27.377073 16711746
8.9380188 0.46135896 27.166077 16711746
8.7273455 0.069878876 31.417004 16711746
8.466259 0.40967238 27.405544 16711746
9.1069632 0.30737016 29.755316 16711746
8.8312206 -2.0626762 26.177248 16711746
12.895767 0.84051037 29.388494 16711746
2.884902 -0.25256577 28.958048 16711746
7.4915996 0.25952339 29.262825 16711746
7.9808159 0.28503275 27.806925 16711746
11.390008 0.45601571 30.824677 16711746
8.4025517 0.36202481 27.900608 16711746
5.5689473 0.081527106 28.071222 16711746
11.325391 0.69676614 29.124195 16711746
12.021113 0.86623776 28.589287 16711746
9.9716082 0.45116273 30.085461 16711746
9.0101357 0.56439012 34.413918 16711746
11.538879 0.79376823 27.78994 16711746
13.31475 0.98871344 28.942606 16711746
8.7310228 0.51837885 27.411039 16711746
11.135105 0.27947557 34.082081 16711746
12.526525 0.32899398 34.407204 16711746
10.091759 0.38299116 32.760109 16711746
9.5234289 0.19993538 33.472092 16711746
2.7161579 -0.41968265 29.869621 16711746
9.125412 0.34463915 29.83753 16711746
11.316288 -1.6500871 36.750595 16711746
15.628757 -11.117579 47.217667 16711746
4.2807789 0.02495862 26.641376 16711746
5.6335316 0.14367378 27.176208 16711746
6.4303718 0.33993381 26.667067 16711746
7.3392911 0.29894429 27.671 16711746
4.9772897 0.12479257 27.009386 16711746
4.6199155 0.062820889 27.196251 16711746
5.5378785 0.2888962 26.760168 16711746
5.4234786 0.16202372 26.732244 16711746
4.7257843 0.10251505 26.715139 16711746
5.2745757 0.17383644 26.707693 16711746
8.1888676 0.37760165 27.313585 16711746
4.2822609 0.11177699 26.732542 16711746
4.725841 0.041512392 27.524206 16711746
8.0647392 0.40358028 27.489954 16711746
5.6314569 0.23662999 26.621914 16711746
4.7013197 0.040982164 27.545031 16711746
5.3233871 0.15810034 27.139359 16711746
7.360177 0.32516044 26.96102 16711746
8.1890221 0.30034268 27.727051 16711746
8.404911 0.35409549 28.478504 16711746
7.7427254 0.33066979 27.152166 16711746
7.7387333 0.18896925 29.9426 16711746
5.4563298 0.30192074 26.531727 16711746
9.8130312 0.50713688 27.288475 16711746
3.457207 -0.22707693 29.512259 16711746
4.1926732 0.024229752 26.70957 16711746
13.689695 0.76327604 30.536785 16711746
7.585146 0.2079808 28.760239 16711746
7.5184002 0.51715344 28.688351 16711746
3.4363894 -0.21429679 29.538378 16711746
7.734241 0.19770253 30.026505 16711746
10.103082 0.57480288 27.255598 16711746
10.29288 0.45675981 29.97559 16711746
10.879947 0.44864032 28.323633 16711746
-16.011864 -7.6433163 40.949287 16711746
9.6628399 -3.134057 28.893717 16711746
8.5364351 0.35128567 27.957743 16711746
7.9673629 0.34317407 27.446262 16711746
7.9709392 0.3084774 27.870852 16711746
5.7181959 0.15084685 26.877377 16711746
7.3713684 0.27102974 28.005709 16711746
3.5488236 -0.10414147 28.429714 16711746
9.7450438 0.5396837 28.576414 16711746
8.1909027 0.37422115 27.306242 16711746
8.9627295 0.42212099 28.259365 16711746
5.8720117 0.263688 26.54426 16711746
4.7448792 0.033781238 27.495081 16711746
3.0240731 -0.041331097 27.802307 16711746
5.5524821 0.25293574 26.439774 16711746
9.8629656 0.48948953 28.277298 16711746
9.7538452 0.54951632 28.595861 16711746
3.10917 -0.17838411 27.730581 16711746
3.2340019 -0.21653172 27.66707 16711746
5.4137716 0.081858173 26.569935 16711746
8.9695826 0.38905022 28.00769 16711746
5.3766155 0.1301574 27.09709 16711746
7.3831549 0.24988414 27.966043 16711746
8.5251064 0.33486119 29.030107 16711746
9.0997324 0.21883079 30.943073 16711746
9.3982296 0.43643662 28.380861 16711746
8.4237385 -4.6163926 33.036865 16711746
11.039798 0.23461366 34.534763 16711746
13.807883 -0.16438322 35.375256 16711746
11.455394 0.39810929 30.529669 16711746
7.7701836 0.26067424 27.00729 16711746
5.2536311 0.18300588 26.72155 16711746
7.5089607 0.1549384 30.531115 16711746
8.0510178 0.23358366 28.323048 16711746
10.779197 0.49777037 29.853973 16711746
1.4402261 -0.81552809 31.869474 16711746
12.575929 0.6792686 28.943867 16711746
9.1306162 0.33401775 29.826931 16711746
4.9643025 0.087018058 27.018456 16711746
8.9704208 0.43795636 28.284746 16711746
6.8863058 0.047994431 30.907959 16711746
8.8436852 0.40441057 28.594156 16711746
3.2929475 -0.054164853 27.864061 16711746
7.8128996 -1.4804752 28.109716 16711746
6.8297863 0.1761996 28.133673 16711746
7.768539 0.38780057 27.799923 16711746
6.7784357 0.059301618 30.319685 16711746
6.9486327 0.22427812 28.801195 16711746
7.4132824 0.093769684 30.423679 16711746
7.6443987 0.10211147 28.489344 16711746
10.091949 0.42778426 30.508772 16711746
11.839014 0.79725593 29.778494 16711746
6.8725986 -0.40082979 35.382721 16711746
6.654695 0.12243045 29.626503 16711746
6.7102599 0.17890489 28.864706 16711746
9.231595 0.27564889 31.010115 16711746
10.802184 0.62513685 27.779589 16711746
6.6791768 -6.2843695 37.762043 16711746
5.1374826 -0.20848316 31.046579 16711746
11.343952 0.37157103 32.694771 16711746
6.8156319 -0.3803516 35.783886 16711746
9.8210936 0.40654832 31.483219 16711746
9.4060116 0.44350722 28.38559 16711746
8.4921656 0.082016356 31.580946 16711746
6.9494615 0.026700651 31.267338 16711746
4.1346169 0.11976091 27.020655 16711746
11.288593 0.38209519 30.60907 16711746
9.9459305 -1.9691828 35.513763 16711746
17.208487 -4.8164043 37.381138 16711746
10.451505 -0.87250274 37.182709 16711746
-3.6098387 -13.642697 71.622688 16711746
-13.647498 -12.084495 86.832451 16711746
12.754246 -5.4403958 39.959393 16711746
8.1811714 0.33995065 27.988697 16711746
6.1567402 0.23210964 27.820356 16711746
3.8519745 -0.095578454 27.289793 16711746
7.5826349 0.21159203 28.308914 16711746
6.9220018 0.15590532 30.071474 16711746
6.8989744 0.2292814 28.610437 16711746
6.041604 -0.035704043 29.579849 16711746
4.5652347 0.0016863293 26.537605 16711746
8.4171476 0.24372424 29.603033 16711746
7.2299371 0.16825771 27.743757 16711746
6.0864663 0.1343656 28.61899 16711746
4.9883032 -0.11457423 26.091692 16711746
8.7717514 0.28727242 29.718872 16711746
9.2277985 0.38794142 28.434546 16711746
6.7934232 -0.15840723 32.388462 16711746
8.8077011 0.33899373 29.5238 16711746
8.560194 0.24308051 28.112169 16711746
6.2689891 -8.9750652 41.570469 16711746
9.7719469 0.35037076 31.260887 16711746
10.082845 -2.8640251 35.57225 16711746
8.0672474 -17.003635 67.864639 16711746
5.06253 -0.037500203 28.708824 16711746
5.3128166 0.0039428263 28.147558 16711746
8.0522337 0.24244308 28.340075 16711746
4.3295383 -0.082423083 29.491249 16711746
10.627191 0.78589779 28.159857 16711746
6.8172336 0.2456996 27.923531 16711746
5.0141034 -0.22155814 33.089912 16711746
9.2604465 0.25554851 30.943708 16711746
6.0786219 0.13351168 28.644035 16711746
4.840795 -0.089707047 29.145189 16711746
7.5398612 0.092091762 30.359037 16711746
5.6807432 -0.12922148 29.974722 16711746
10.083399 0.8020795 28.881426 16711746
9.7572117 0.54264647 28.971857 16711746
7.2907887 0.19242705 29.70429 16711746
5.6475577 -0.088088505 29.635885 16711746
6.6794834 0.18909906 29.212343 16711746
3.3864999 -0.72502857 33.317116 16711746
6.7898521 -0.37666678 35.888103 16711746
10.147113 0.54268324 29.379396 16711746
11.935547 0.68855202 30.208929 16711746
11.262506 0.69374293 29.767296 16711746
10.780306 0.4993327 29.862221 16711746
10.534692 0.60746109 28.427525 16711746
7.8952589 0.22853677 28.726395 16711746
9.8079958 0.26091284 33.181824 16711746
4.7334809 -0.81592274 38.202023 16711746
12.125875 0.21851391 33.223946 16711746
0.35667732 -7.8800812 67.298615 16711746
9.8698616 -2.6679192 33.705727 16711746
-18.917 -6.5678911 52.812317 16711746
2.5350506 -21.933672 81.004974 16711746
3.5640111 -18.455402 71.054832 16711746
-20.895416 -9.471056 100.63816 16711746
-16.320717 -6.8285041 57.411221 16711746
12.810195 -1.8167615 42.462029 16711746
7.4700141 0.16446991 30.493753 16711746
10.407184 0.47250009 30.050491 16711746
9.37743 0.42913482 28.956575 16711746
9.8338795 0.4868305 29.571314 16711746
6.2866125 0.24244517 27.72571 16711746
8.0548544 0.29956493 28.056763 16711746
6.8992991 0.0025675928 30.779543 16711746
4.409338 -0.18742165 32.010845 16711746
1.0348413 -0.69722015 33.029072 16711746
13.90022 0.71652704 32.498451 16711746
7.4466634 0.26888677 28.80018 16711746
5.9786916 0.20819625 27.363377 16711746
11.315572 0.41466045 34.423225 16711746
5.5760584 0.079413548 28.06917 16711746
5.0512257 -0.034665652 28.716043 16711746
5.5355778 -0.038588513 29.137333 16711746
6.8489995 0.2197399 27.865831 16711746
5.0218925 -0.027188841 28.74157 16711746
5.2026572 -0.08284086 28.566614 16711746
8.1670828 -0.010802177 28.949247 16711746
7.9040895 0.16541845 28.599915 16711746
5.0420938 0.12041359 27.866505 16711746
5.5253611 0.11692742 28.123217 16711746
6.7596726 0.29217428 28.010044 16711746
4.9264765 -0.026029063 28.334269 16711746
6.0821762 0.10275941 28.82399 16711746
6.1186442 0.083953343 29.003996 16711746
6.3770413 0.43531314 30.324467 16711746
5.7591558 -0.13465305 29.456673 16711746
10.348309 0.58602911 28.625212 16711746
5.5825949 -0.1054484 29.389614 16711746
6.3883133 -2.6966858 31.795393 16711746
6.9255672 0.25638565 28.85078 16711746
6.7482085 0.15019472 31.39772 16711746
3.7597203 -0.53758222 33.150345 16711746
5.4178185 -0.24870913 31.128963 16711746
11.721895 0.57243919 30.252939 16711746
6.2276244 0.18819466 27.982191 16711746
0.42181143 -6.866035 39.376987 16711746
1.2795351 -3.3287058 43.474121 16711746
4.8097267 -0.65244704 37.291901 16711746
-3.4141777 -1.2226449 31.390076 16711746
11.383645 0.44649363 30.813038 16711746
8.7583914 -0.14233114 32.179237 16711746
9.099925 0.44599181 29.031361 16711746
-9.0761251 -3.7185476 35.069229 16711746
11.866857 0.59019738 30.014437 16711746
3.9038579 -3.9964406 39.889183 16711746
6.5878873 0.23858275 29.405479 16711746
6.1455274 0.16940804 28.082052 16711746
-2.1259017 -1.0486714 31.49894 16711746
1.1229807 -0.37817237 29.488636 16711746
12.087042 0.80042154 30.470394 16711746
8.6884642 0.32585254 28.922947 16711746
3.0452669 -0.24027854 28.838461 16711746
9.9636021 0.41687015 30.007326 16711746
6.2894664 0.1863344 28.015951 16711746
-4.4871054 -2.729228 48.019329 16711746
7.354095 0.20750311 29.197582 16711746
6.9130845 0.17342022 30.134926 16711746
1.8493961 -0.25079799 29.159988 16711746
-21.00205 -9.0839453 44.779938 16711746
-2.4892673 -10.02175 69.644547 16711746
-1.2608625 -16.4799 65.374336 16711746
3.2099657 -19.544748 74.61116 16711746
9.8977137 -1.97869 35.255081 16711746
-9.0347795 -7.3092937 69.643623 16711746
5.7579479 0.21637881 27.689356 16711746
6.7396002 0.053311441 29.905493 16711746
6.9253573 0.021625897 30.784998 16711746
5.5807405 0.15965056 27.683937 16711746
4.8920307 0.23832735 27.748302 16711746
10.165313 0.56588566 29.417221 16711746
5.664021 -0.10402008 29.609049 16711746
7.3081074 0.23897214 29.272614 16711746
2.3230014 -0.54601121 28.782061 16711746
4.5116591 -0.03426785 27.590355 16711746
5.7906938 0.18384458 27.615105 16711746
3.8021767 -0.27843931 29.687645 16711746
2.7898157 -0.4310818 29.83234 16711746
2.8179765 -0.95051116 29.910101 16711746
11.521484 0.60056973 29.442812 16711746
4.3770971 -0.14961877 27.977406 16711746
6.5183964 0.046319667 30.010017 16711746
16.313162 -11.494396 52.052536 16711746
6.1522832 0.078210682 28.948107 16711746
13.144849 -1.1972996 44.116348 16711746
12.855031 -5.3715906 40.315376 16711746
6.8818946 0.24501278 28.639074 16711746
6.175457 -0.17852756 31.410328 16711746
11.838401 0.7995224 29.764894 16711746
11.064888 0.71036822 29.096359 16711746
6.8801184 -0.1767083 32.253658 16711746
9.2017851 0.29176545 30.233332 16711746
6.1799393 0.20651098 27.796877 16711746
7.6666894 0.23555325 28.291424 16711746
5.2726336 0.18136159 27.246269 16711746
4.8719263 -0.35314068 32.68993 16711746
3.82424 -0.90085822 35.539951 16711746
5.0578976 -0.21943037 32.979912 16711746
6.7139297 0.17470509 29.244423 16711746
10.768657 0.38817784 31.151279 16711746
6.0451546 0.028752204 29.085985 16711746
11.062717 0.71031612 29.099195 16711746
6.7011833 0.18448253 28.878544 16711746
-10.937478 -9.5662594 53.61467 16711746
8.7814064 -0.09491422 30.95223 16711746
4.5271659 -0.79494953 38.824905 16711746
10.993979 -3.4179931 33.890179 16711746
9.6896257 0.0076959464 34.469158 16711746
3.0151982 -0.25495261 28.869448 16711746
5.1731648 0.072280414 27.749828 16711746
6.3891444 0.10176201 29.597212 16711746
6.0725036 0.19159254 27.887844 16711746
5.5250473 0.028051712 28.87229 16711746
5.7678022 0.13119788 28.021973 16711746
5.2447944 0.037763476 27.708485 16711746
8.1264668 0.0090759099 28.91713 16711746
2.4905403 -0.93234771 30.152817 16711746
6.815938 0.19370453 28.147823 16711746
6.0106096 0.14066425 28.882536 16711746
6.2985668 0.15805042 28.0156 16711746
6.0539184 -0.051581498 29.551222 16711746
12.532951 0.4340246 31.557978 16711746
11.340415 -3.9864337 35.103992 16711746
-5.6806555 -4.314496 50.322872 16711746
-22.404469 -6.3843966 44.836685 16711746
3.7830091 -0.17149796 27.509354 16711746
3.4266095 -0.22097641 29.547195 16711746
11.381637 0.45456216 30.810488 16711746
8.4581709 0.099572778 31.01038 16711746
6.7198453 -0.074289404 31.460299 16711746
0.22786413 -0.67733943 30.352129 16711746
10.718204 0.29198301 30.982618 16711746
10.38163 0.4771387 28.879087 16711746
10.43325 0.03244542 30.159445 16711746
4.7763228 -0.084529288 27.954531 16711746
-4.5415378 -3.5868955 33.528069 16711746
-2.2520373 -1.7394412 34.157162 16711746
-6.0414696 -3.8853347 34.630024 16711746
8.0976839 0.25285742 29.729521 16711746
1.9071239 -0.84107262 30.71624 16711746
5.8028646 -0.11157835 28.565887 16711746
9.8088636 -2.576026 33.452248 16711746
-2.5126286 -1.2208488 30.877243 16711746
3.8467803 -0.55876827 32.993244 16711746
9.8601427 0.52803284 29.685843 16711746
4.0000815 -0.33484226 31.500406 16711746
8.1420479 0.21456267 29.582541 16711746
8.7593832 0.21127042 30.505032 16711746
6.0296879 0.057106078 27.452841 16711746
5.8166046 -0.074881636 30.27672 16711746
5.9941711 -0.098784 31.805893 16711746
9.1379271 0.32619619 29.749643 16711746
6.3556008 0.11059987 29.614391 16711746
6.7791591 0.059413545 30.361309 16711746
4.8965745 -0.1041131 29.077171 16711746
4.3095622 -0.20829977 30.393442 16711746
1.9138207 -0.41990545 30.704367 16711746
5.0276256 0.022203423 27.97698 16711746
7.2759619 0.19660003 29.697954 16711746
6.73282 0.087117381 30.437 16711746
4.2393265 0.086160965 28.319134 16711746
6.0954928 -0.067873567 29.531771 16711746
5.1739578 -0.2242634 30.998125 16711746
1.6835514 -0.49131984 32.020393 16711746
7.2102556 0.18106204 29.843431 16711746
8.4044361 0.24661344 29.634048 16711746
0.45166877 -0.34339526 33.179131 16711746
4.9607739 -0.60086554 33.545635 16711746
4.5445976 -0.98662031 30.088192 16711746
12.952734 0.37007126 32.414963 16711746
6.7434077 0.15811978 28.808718 16711746
8.779273 0.25385222 29.632214 16711746
3.954915 -0.11124887 27.768358 16711746
6.1914592 0.047494687 28.904322 16711746
10.593499 0.42792511 30.355339 16711746
3.0246081 -0.25899369 28.894543 16711746
2.886898 -4.8057418 46.504059 16711746
-11.640359 -8.3186865 60.979553 16711746
-8.246973 -4.7576447 42.001858 16711746
10.487216 0.32286453 32.027397 16711746
1.961771 -8.7965212 49.761497 16711746
10.374186 -0.26810429 36.490108 16711746
-7.773006 -5.9201112 68.457268 16711746
-12.751126 -8.571414 49.749706 16711746
15.006519 -3.9848104 50.996365 16711746
-6.6920629 -9.2986307 61.225819 16711746
6.7100062 0.18852784 28.859949 16711746
5.3449273 0.0015786018 28.739218 16711746
4.9867358 -0.4505116 35.678745 16711746
4.8249707 -0.40436906 35.135796 16711746
4.7177219 -0.20889516 30.51824 16711746
5.2638297 -0.013757588 28.782375 16711746
9.2758284 0.034638327 33.771065 16711746
6.8428349 -0.17045905 32.31699 16711746
8.6539202 0.31389898 29.487705 16711746
9.2926197 0.10822041 34.194962 16711746
12.266706 0.28614786 31.121744 16711746
-5.2619491 -2.7552588 49.194851 16711746
-10.680582 -3.0505817 42.322109 16711746
-13.537007 -7.4147687 62.216393 16711746
5.9900503 -0.11193044 31.176485 16711746
7.0296535 0.22160806 28.200029 16711746
8.6338501 0.16130851 30.309614 16711746
6.694788 0.15973096 29.497925 16711746
10.435923 0.51273972 30.134771 16711746
6.0192399 -0.013190573 29.624968 16711746
5.165905 -0.035463363 27.873007 16711746
8.1252775 0.19307393 29.555923 16711746
3.5060248 -0.54109049 32.098167 16711746
6.7846088 0.30274102 29.595966 16711746
5.5210485 0.086923994 27.955927 16711746
7.1571445 0.25098717 30.059992 16711746
5.0102553 -0.16210411 31.246092 16711746
4.4084568 -0.22971179 30.193586 16711746
8.616684 0.19438295 30.832979 16711746
6.7142577 0.008254027 31.516678 16711746
6.0998392 0.096057706 29.025036 16711746
6.1648669 0.089220949 28.521963 16711746
4.7841511 -0.6417889 37.356277 16711746
2.9793251 -0.39747766 29.951559 16711746
3.6733632 -0.53030354 33.265255 16711746
2.7813113 -0.36892301 30.0881 16711746
6.7295613 0.16623561 28.818914 16711746
3.7983549 -0.55929744 33.078819 16711746
4.373179 -0.21669042 30.324999 16711746
4.5666323 -0.55729741 36.909191 16711746
5.8233886 0.033795428 27.623173 16711746
-5.5526648 -5.3689485 49.114075 16711746
4.6415949 -0.22415514 27.875223 16711746
4.7947044 -0.53347129 33.949284 16711746
6.1269341 0.063122004 28.727856 16711746
4.0675678 -0.66800237 31.35075 16711746
9.2363834 0.11079273 34.107506 16711746
5.275702 -0.10564178 29.133736 16711746
-7.4118071 -4.0459309 35.454449 16711746
7.3077612 0.2315132 28.98535 16711746
-6.5120015 -2.8445125 51.229263 16711746
8.6672153 0.32268113 29.49357 16711746
11.814588 0.43544766 31.504225 16711746
2.8260348 -0.36501804 30.063494 16711746
6.3849902 -0.13355738 30.997112 16711746
-10.208475 -2.6973464 34.928658 16711746
-5.1451612 -6.4925756 50.059254 16711746
4.8751945 -0.11515648 29.106953 16711746
-5.8188415 -5.3911924 49.914345 16711746
5.8124924 0.16830397 27.599024 16711746
5.3641505 -0.23170711 31.24111 16711746
8.274231 -0.17853597 35.914528 16711746
10.469926 0.28487089 31.905724 16711746
14.50852 0.64848584 32.313316 16711746
9.3040743 0.15379071 34.293888 16711746
-3.0925071 -1.8821731 39.762997 16711746
12.454074 0.28956884 33.466496 16711746
12.846378 0.65561742 30.47554 16711746
1.6155487 -0.70327443 33.743557 16711746
8.8301668 -0.0088504702 32.357254 16711746
-9.1530628 -6.158463 70.612999 16711746
6.9333487 0.15401037 30.06262 16711746
10.022413 0.50957048 29.807884 16711746
5.7205863 0.19339184 28.084978 16711746
8.7859573 0.23514651 30.021589 16711746
9.8184767 0.58372587 29.661737 16711746
6.9535136 -0.0038335221 30.738626 16711746
6.1744308 -0.19212857 31.4041 16711746
6.7162504 0.1736504 28.839508 16711746
5.5247636 -0.32785204 27.516287 16711746
9.0207615 0.24794085 30.155796 16711746
5.2945881 -0.26184401 32.575054 16711746
4.1786971 -0.15899 30.493011 16711746
5.2498317 -2.9710474 36.526352 16711746
8.137538 0.1628046 29.975784 16711746
5.6929545 -0.54315674 27.28368 16711746
9.8864708 0.37847817 30.69853 16711746
14.636719 0.66387248 32.417988 16711746
5.5618405 -0.12700546 30.776638 16711746
6.1507101 -0.023638038 28.975395 16711746
8.4932165 0.33899161 29.248251 16711746
5.5348339 -0.072346628 29.564287 16711746
8.2414398 -0.1477154 36.17025 16711746
8.192131 0.064011149 29.725647 16711746
9.1312876 0.32877168 29.803804 16711746
8.8545942 -8.5417242 44.207607 16711746
5.6168175 0.087444238 27.912706 16711746
11.365829 0.52112985 30.271452 16711746
6.2012229 -0.20772225 31.371735 16711746
-1.7750946 -1.2789812 30.428997 16711746
-6.9767895 -3.6688914 55.669823 16711746
11.285007 0.71666366 29.808161 16711746
3.7976568 -0.93057162 32.562157 16711746
6.3757157 -0.040665813 30.47455 16711746
13.500612 0.58400071 31.37874 16711746
-8.6085024 -3.5316098 54.263866 16711746
9.8393593 0.18247984 32.949436 16711746
8.1413412 0.22694765 29.270523 16711746
6.4031997 -0.046608694 30.427473 16711746
10.866134 0.4674879 29.242788 16711746
11.637561 0.65558583 29.534935 16711746
8.9213467 0.32345834 29.898323 16711746
2.5777695 -1.2087603 29.325031 16711746
8.076437 0.12876536 30.829018 16711746
6.7675009 0.075131252 30.385853 16711746
6.0009623 0.0028303429 29.642511 16711746
12.039122 0.61416966 30.24716 16711746
7.3160653 0.17122838 29.662338 16711746
6.8901515 0.24311098 28.638966 16711746
5.1424503 -0.48250511 35.439346 16711746
9.2677221 0.2536152 30.946148 16711746
1.2151035 -1.3104292 29.210159 16711746
4.9780631 -0.60709119 33.624802 16711746
5.3080091 -0.10069787 29.124041 16711746
9.1143379 0.26251245 31.053783 16711746
11.434312 0.61175025 30.219158 16711746
7.8234334 -0.27555168 40.06419 16711746
8.4766932 0.22405899 29.821321 16711746
6.8373556 0.19669671 29.20846 16711746
13.327879 0.90123236 31.019156 16711746
11.04411 0.43777877 30.538631 16711746
10.39244 -0.13994956 37.314133 16711746
-6.1264524 -2.8878632 50.838783 16711746
10.680082 0.070463233 36.616364 16711746
11.352726 -0.12257496 39.550201 16711746
11.33448 0.33262673 32.103493 16711746
2.6412451 -18.319607 73.588615 16711746
-17.476439 -10.056052 54.244335 16711746
2.503727 -19.4408 77.964127 16711746
-13.480739 -9.7197285 46.22871 16711746
9.2111378 0.33008122 30.338436 16711746
10.015416 0.49387431 30.181385 16711746
5.9929714 -0.13299826 31.094612 16711746
10.440483 0.64126754 30.377346 16711746
9.761385 0.30409786 31.107328 16711746
13.477911 0.59848189 31.413046 16711746
7.9908319 0.11995535 30.305603 16711746
12.452474 0.71242809 30.146332 16711746
2.9616137 -0.81730843 33.646164 16711746
9.3552771 0.26813111 30.088713 16711746
4.5949926 -3.201488 31.140495 16711746
6.0973897 -0.10529705 29.803045 16711746
10.738309 0.55998427 29.677937 16711746
4.8772664 -0.36111516 32.446697 16711746
5.4657612 0.027154157 28.780355 16711746
9.0492477 0.37754017 29.70973 16711746
9.2058744 0.30507794 30.272554 16711746
3.2053382 -0.59182537 34.659481 16711746
11.278576 0.43447861 30.099695 16711746
9.2620916 0.28906649 31.011854 16711746
9.6371279 0.044174578 33.670784 16711746
6.8091846 0.036478627 30.334829 16711746
5.8021011 -0.088176258 30.541203 16711746
10.809001 0.2890197 32.420284 16711746
9.5119762 0.1200431 32.086273 16711746
11.028719 0.43539193 30.505571 16711746
11.387797 0.22649468 34.948948 16711746
-5.0618467 -2.309896 34.426533 16711746
3.2299607 -0.5476377 34.625584 16711746
8.3428965 -16.705217 64.804527 16711746
-15.291433 -7.8798027 46.421764 16711746
9.2002878 0.30142099 30.269722 16711746
10.430001 0.49550965 30.076694 16711746
8.7847891 0.21158205 29.964849 16711746
6.8253179 0.038379889 30.353447 16711746
6.3690677 -0.06975171 30.183584 16711746
7.9905796 0.14645998 30.350243 16711746
11.811764 0.61463368 30.068476 16711746
4.8906674 -0.37475765 32.421246 16711746
8.5300665 0.1156783 32.179062 16711746
4.7303367 -0.35190052 32.599712 16711746
8.2502651 0.037161253 30.399673 16711746
8.4040689 0.13328518 30.431231 16711746
7.3871965 0.038331542 29.524649 16711746
6.6656132 0.11474133 29.603785 16711746
11.448744 0.59360683 30.391148 16711746
10.927231 0.27002078 33.115459 16711746
8.1443996 -0.41233301 45.074387 16711746
-7.2727938 -8.3951416 79.86879 16711746
15.460298 -0.13031033 48.880337 16711746
11.815746 0.43543872 31.493753 16711746
9.9832869 0.27795687 31.768145 16711746
8.6777182 0.16513364 30.872602 16711746
16.091438 0.73293316 34.187317 16711746
-7.0625305 -3.9698267 40.558403 16711746
8.4726734 0.02309835 30.833578 16711746
11.390988 0.54241788 30.296564 16711746
-15.841322 -7.1286077 51.333191 16711746
10.956921 0.47220689 30.734093 16711746
10.782846 0.4012565 31.179375 16711746
8.1573009 -4.9264898 42.504185 16711746
11.702376 0.40556717 31.142776 16711746
6.529778 -0.1662519 30.419176 16711746
5.3959212 0.014151188 29.280163 16711746
12.162498 -9.7490273 54.319145 16711746
8.8742828 -4.0912304 40.02663 16711746
11.629024 0.38063434 31.921541 16711746
8.7179918 0.055039287 31.335073 16711746
-11.138905 -5.1725707 58.368488 16711746
8.1657 -5.0402794 42.981346 16711746
8.1121302 0.10996454 30.90699 16711746
5.6066446 -0.097442403 30.307524 16711746
7.9825935 -0.053248908 31.06566 16711746
8.6888094 0.15534198 30.440872 16711746
8.7345018 0.1401398 30.861683 16711746
8.5199776 0.070927776 31.209856 16711746
11.166459 0.59535307 29.601528 16711746
10.621405 0.50703859 30.330641 16711746
11.659696 0.52854413 30.584677 16711746
11.622747 0.65254116 29.502836 16711746
9.5890741 0.339865 31.030188 16711746
10.828053 0.32155707 32.607876 16711746
10.813415 0.47992018 30.104221 16711746
4.1649246 -0.058125023 31.079988 16711746
13.128807 0.41433412 30.98518 16711746
3.2011733 -0.83529687 32.255829 16711746
12.134162 0.36742377 29.972023 16711746
5.160161 -0.1715216 29.423277 16711746
3.0143685 -0.83901799 33.36726 16711746
8.643281 -1.847365 28.093977 16711746
-0.55334824 -12.459609 61.769115 16711746
10.705348 -2.6979418 36.686489 16711746
10.551542 -1.9678664 36.424969 16711746
0.43900582 -0.73820603 33.066273 16711746
0.89849347 -0.74756044 32.937492 16711746
2.0221496 -25.983662 80.864311 16711746
12.691527 -5.9903526 39.735325 16711746
5.0110493 -1.1814274 37.555279 16711746
7.9202824 0.030352352 31.316324 16711746
10.422187 0.48744535 30.070063 16711746
14.146081 0.66463131 32.29533 16711746
8.2343998 0.042449884 31.269188 16711746
8.1362724 -0.026884576 33.480701 16711746
9.3719969 0.13604458 31.475506 16711746
8.3023157 0.12083555 30.995007 16711746
8.516161 0.14783627 30.715393 16711746
8.2964201 0.16744426 30.057848 16711746
9.4114265 0.27475554 30.410645 16711746
9.9195032 0.42916265 30.133509 16711746
10.792233 0.27501407 32.391399 16711746
1.6265427 -0.6827805 33.733105 16711746
1.5528271 -0.68692297 33.764427 16711746
10.086617 0.12318823 31.035807 16711746
8.4344158 -4.0429063 38.366825 16711746
7.9773898 -0.49750182 39.745567 16711746
14.294986 0.54653883 32.018414 16711746
12.243162 0.56315935 29.806898 16711746
4.460885 -0.35717759 31.510309 16711746
-11.396704 -7.3467455 45.089108 16711746
4.5316467 -0.42224708 32.778687 16711746
9.9576302 0.23196356 31.661928 16711746
11.12525 0.25758639 34.009689 16711746
9.9879131 0.21754804 31.924641 16711746
12.62441 -4.2747183 39.696522 16711746
1.5715127 -0.47851971 33.217545 16711746
4.9649339 -0.10939384 29.919712 16711746
10.703286 0.49442503 30.865305 16711746
11.521585 0.49319482 30.758875 16711746
11.957303 0.54949272 30.132526 16711746
8.194706 0.1102562 30.450632 16711746
6.6326599 0.20408052 29.585585 16711746
1.4629414 -0.35953289 32.615551 16711746
7.5986204 0.17379807 30.686737 16711746
6.661274 0.14607216 29.935492 16711746
5.5848889 -0.090076998 30.311827 16711746
10.835836 0.2786805 32.77528 16711746
7.5861292 0.014485406 31.902361 16711746
4.2196813 -0.053997744 31.039606 16711746
6.8460455 -2.0772498 37.830906 16711746
7.9927139 0.20818679 31.055693 16711746
11.624177 0.47023261 30.692633 16711746
9.8699322 0.42041153 30.225214 16711746
12.284731 -0.21975251 33.374146 16711746
8.1990776 0.087556176 31.4235 16711746
10.230386 0.35997006 31.666807 16711746
11.897787 0.34117979 29.512438 16711746
13.129584 -0.34671596 34.124538 16711746
9.7927876 0.32195017 31.212496 16711746
10.709478 0.49842304 30.889339 16711746
1.0984325 -1.686767 43.881813 16711746
10.710097 0.37899002 31.426479 16711746
8.9922218 0.10147561 31.156694 16711746
9.7884398 0.1412176 32.760052 16711746
5.6933246 -0.91940051 43.179699 16711746
8.192173 0.11745554 30.46109 16711746
9.7863102 0.33271766 31.2355 16711746
13.647016 -9.828331 51.275162 16711746
15.106545 -0.0048918789 35.056705 16711746
10.609967 -0.80485886 38.162773 16711746
16.774574 0.56834656 38.330261 16711746
10.699889 0.13599308 34.053574 16711746
12.351221 0.20221448 35.763866 16711746
-0.8692342 -10.052048 70.524506 16711746
11.45065 0.065744773 33.336826 16711746
8.445199 -4.0906358 33.474247 16711746
8.1857958 0.053489063 31.594276 16711746
8.057106 -0.0047026989 32.482677 16711746
7.0928602 -0.007852545 31.251026 16711746
6.9464617 -0.12040833 31.550222 16711746
7.8615909 0.11638668 30.948744 16711746
3.9515655 -0.32876855 31.528868 16711746
12.578602 0.10198797 29.995089 16711746
8.5204306 0.079832375 31.668749 16711746
10.691813 0.35025203 31.359238 16711746
7.4210606 0.043341134 31.338835 16711746
5.3307295 -0.2074637 29.646778 16711746
7.8933687 0.060418829 31.474272 16711746
7.5989466 0.22327599 31.021341 16711746
6.8506551 -0.18930084 32.255367 16711746
13.564965 0.78756571 32.465431 16711746
9.6311302 -0.45797107 33.763283 16711746
10.081014 0.11205393 34.059258 16711746
12.066453 0.30583149 32.541466 16711746
6.245245 -3.6220531 40.363983 16711746
7.6195726 -0.018765077 31.805008 16711746
10.952456 0.25715393 32.724815 16711746
12.358172 -0.16577053 33.532368 16711746
8.6281013 0.1811167 30.33729 16711746
11.300945 0.46767759 30.603878 16711746
8.0333319 0.017165456 32.556751 16711746
9.264967 0.24820781 30.930519 16711746
8.8766661 0.21441974 30.915003 16711746
8.8864994 0.17392945 30.810139 16711746
9.082181 0.085913986 31.814413 16711746
7.2113385 -0.39093307 38.225449 16711746
10.437243 0.037922177 35.741657 16711746
7.9345679 -5.7915769 36.786606 16711746
10.650528 -2.6582403 36.272301 16711746
7.3484845 -0.066334911 32.088917 16711746
8.1563616 0.16554141 30.544445 16711746
14.61869 0.65252692 32.363415 16711746
6.8289385 0.010611946 30.481661 16711746
8.5061674 0.046471011 31.834875 16711746
7.1777668 0.11662158 30.416716 16711746
6.9150491 -0.20869862 32.207973 16711746
11.728236 0.39036345 29.915623 16711746
7.2446094 -0.0059218588 30.917677 16711746
7.8080158 0.19192678 31.126951 16711746
7.0084672 -0.048692297 31.314913 16711746
6.9263892 0.029908303 30.789749 16711746
9.2543726 0.25699785 30.950127 16711746
11.599031 0.36199218 31.873461 16711746
7.7747173 -0.24778636 35.618015 16711746
10.581028 0.1099987 35.021626 16711746
4.5170317 -0.33664894 32.098122 16711746
10.399405 -0.070121661 35.418789 16711746
3.2572715 -6.6637716 42.865955 16711746
6.5304689 -10.502074 47.137432 16711746
19.470469 -9.9606133 66.107903 16711746
-12.326475 -8.4086132 48.673649 16711746
10.694977 -3.3725762 32.50972 16711746
9.630291 0.044072628 33.671501 16711746
8.1775484 0.068371221 31.620527 16711746
9.4463558 0.19852862 32.12431 16711746
7.0482941 -0.2875194 34.523323 16711746
8.1576452 0.0029028617 32.377911 16711746
9.3994989 -0.99748772 35.761127 16711746
12.24751 0.43143123 32.073715 16711746
7.4433694 0.030045459 31.31151 16711746
9.5291367 0.11699258 33.134151 16711746
7.3293786 -0.020034159 31.764389 16711746
6.3675385 -0.3597194 35.487076 16711746
10.455359 0.25024831 31.821218 16711746
5.0406981 -0.82204533 37.571606 16711746
16.386587 0.84156609 34.505955 16711746
8.6121979 0.06531018 33.003269 16711746
7.7805338 0.19280487 31.783388 16711746
5.0635705 -0.83217067 37.554432 16711746
7.7782807 -0.023551855 32.546829 16711746
6.2363973 -0.97496688 38.805283 16711746
9.6023369 0.15660529 32.52916 16711746
10.771274 0.38570064 31.142269 16711746
7.2787371 -3.631685 33.495834 16711746
16.327562 0.49365517 39.235302 16711746
8.6390028 0.1291516 31.162193 16711746
7.2935238 0.10787515 30.848309 16711746
8.0054359 0.13394941 30.838142 16711746
7.5441613 0.048050661 31.649427 16711746
7.2499795 0.00021335298 31.42775 16711746
6.8681626 -0.07020469 31.434349 16711746
7.1053381 -0.15782812 31.799007 16711746
5.8593068 -0.3937844 31.861448 16711746
7.348824 -0.033356108 31.726044 16711746
6.1822729 -0.19179487 31.400068 16711746
7.1343293 -0.32036683 34.298477 16711746
5.2516804 -0.20720094 32.614941 16711746
8.1184721 0.038823936 31.542463 16711746
7.2963276 -0.16144882 32.355286 16711746
5.9008012 -0.43979299 31.784281 16711746
4.1619034 -0.66237223 35.512535 16711746
4.9669619 -0.82488042 37.696491 16711746
7.5049791 -0.54886419 36.888226 16711746
8.5176048 0.047485225 31.514927 16711746
6.9202118 0.021951707 31.119801 16711746
7.3074059 -0.15200454 32.350479 16711746
11.38878 0.38415462 32.209209 16711746
11.412049 0.50511211 30.850134 16711746
6.9172854 -6.9818563 43.143009 16711746
1.9217165 -0.71933687 34.577236 16711746
9.599473 0.14590821 32.517067 16711746
12.336609 0.18831342 35.709637 16711746
6.807272 -0.035020892 31.820799 16711746
7.3851018 0.05923225 32.354233 16711746
8.6487503 0.0089051221 32.791695 16711746
9.7123623 -0.14790721 34.229485 16711746
10.260565 -0.076867506 35.539616 16711746
11.49381 -0.10071994 41.332806 16711746
12.916927 -17.298185 73.612686 16711746
6.7087903 -0.17583753 31.722118 16711746
6.3863211 -0.36191705 35.453003 16711746
8.3438377 -0.18313515 34.299347 16711746
9.2952185 0.19045906 32.266804 16711746
7.4370461 0.032219451 31.316532 16711746
6.0765686 -0.30004576 32.075207 16711746
9.0659437 0.077003606 32.424152 16711746
9.9620419 0.28682891 31.426739 16711746
9.5940123 0.13140966 32.461067 16711746
12.532918 0.33496782 34.442825 16711746
7.0013733 -0.44475478 34.247963 16711746
10.733248 -7.4833341 45.322971 16711746
9.8551359 0.19521745 32.173214 16711746
6.9198265 -0.18765549 32.220184 16711746
5.3766689 -0.20633702 31.897882 16711746
6.2272835 -0.082171373 31.147337 16711746
4.027637 -0.57400465 32.204334 16711746
9.0731859 0.085846193 32.457272 16711746
9.2087107 0.16647102 32.004364 16711746
3.4251902 -0.53245389 32.185898 16711746
9.0207558 0.11570773 31.53215 16711746
-3.5832689 -3.4572818 38.467373 16711746
10.028717 0.24136055 32.010368 16711746
4.7477102 -0.56806231 35.066147 16711746
12.069232 0.29177594 32.106312 16711746
11.105381 0.11063192 32.676769 16711746
7.2289624 -0.28272316 34.260498 16711746
11.155163 0.35555166 32.452816 16711746
11.911903 0.25613287 32.917229 16711746
12.084579 0.32423872 33.692368 16711746
8.4943924 0.069032826 31.905764 16711746
8.2134371 0.0079156049 32.012268 16711746
11.534034 0.50069952 30.761333 16711746
7.4535794 -0.049287688 31.834229 16711746
9.6046133 0.16945902 32.551098 16711746
8.5773907 0.042536069 32.286705 16711746
10.215406 0.26033056 32.452332 16711746
9.3784218 0.20906805 31.258823 16711746
12.466401 0.28036472 34.294197 16711746
11.335304 0.34696606 32.622803 16711746
6.4469471 0.022984317 31.154608 16711746
4.6122146 -0.5430091 32.605808 16711746
11.828248 0.46222606 31.536322 16711746
9.2063866 0.090352878 31.540661 16711746
12.306878 0.30892724 34.483284 16711746
9.7658453 0.14741167 32.965809 16711746
6.3494892 -0.02245041 30.82889 16711746
15.427207 0.28284299 38.776752 16711746
7.3880939 -0.073688231 32.213699 16711746
6.771534 -0.30857196 32.756954 16711746
13.293945 -0.33983979 35.09462 16711746
7.6244636 -0.039409868 31.788694 16711746
6.7447834 -0.19238447 31.6772 16711746
9.2064056 0.14663287 31.968298 16711746
9.8561249 0.1808424 32.904358 16711746
13.949515 0.54911536 34.878094 16711746
4.1454005 -0.65973729 35.566601 16711746
9.269495 0.13062248 34.071129 16711746
4.572331 -0.54640746 35.202843 16711746
4.993216 -2.7674725 39.019875 16711746
7.1222916 -0.31330779 34.378223 16711746
10.458537 0.27241078 32.352856 16711746
10.256838 0.37776509 31.424795 16711746
7.9941235 -0.092998773 33.616436 16711746
0.72868341 -6.1525784 44.929565 16711746
7.7880306 -0.30568227 37.008129 16711746
4.9168806 -0.18239997 31.841227 16711746
11.446535 0.13096246 36.624851 16711746
10.982837 -0.24064061 39.474274 16711746
12.375992 0.1987199 35.811707 16711746
11.557728 0.2555359 34.33765 16711746
11.545829 0.28192601 32.734135 16711746
7.9088597 0.026897714 31.482471 16711746
4.1205649 -0.62690145 35.01852 16711746
7.5497484 -0.20231956 32.89613 16711746
7.4521532 0.028915109 31.297014 16711746
11.260416 0.39054734 31.831221 16711746
16.595926 0.58114725 36.72657 16711746
17.804083 0.9270618 38.239651 16711746
10.094388 0.11543814 34.041069 16711746
9.8665047 0.22056074 32.254105 16711746
8.5098486 0.05052682 31.457411 16711746
8.1371794 0.093350857 31.273026 16711746
10.192236 0.21701309 32.342201 16711746
5.4450078 -0.50361335 36.347481 16711746
10.941583 0.36702335 31.67597 16711746
6.2171845 -0.20552722 31.377495 16711746
16.340899 0.5123871 36.531597 16711746
9.927804 0.25879452 31.661045 16711746
10.450264 0.26806697 31.892843 16711746
7.2427392 -0.12006728 31.966293 16711746
-8.7409468 -2.8774426 44.136032 16711746
10.957627 0.30450252 31.884085 16711746
7.9113917 -0.070045464 33.007824 16711746
9.8719425 0.2237211 32.244473 16711746
10.368019 0.20209362 33.24519 16711746
10.029743 0.24104996 31.99753 16711746
12.016301 0.38754046 32.37915 16711746
10.48729 0.1370199 33.197254 16711746
10.924913 0.34011564 31.623035 16711746
3.5921454 -0.89273036 32.033684 16711746
-12.642114 -5.7820048 41.32748 16711746
11.333238 0.0084363762 36.247311 16711746
27.861849 -7.4988265 47.47971 16711746
18.435381 0.30037263 46.662113 16711746
34.597992 -5.2937355 59.383869 16711746
10.583947 -0.6555838 38.444736 16711746
10.671228 -3.2623744 32.960701 16711746
6.8937902 -0.035315696 31.077314 16711746
6.7311306 -0.11668306 31.191921 16711746
9.3876629 0.14706694 32.276512 16711746
7.8567805 0.025089469 31.736683 16711746
6.7717929 -0.14089337 31.153534 16711746
6.7794909 -0.39689434 35.893787 16711746
5.3162251 -0.21013482 31.307158 16711746
6.8577213 -0.41622221 35.80027 16711746
3.8576214 -0.55156946 32.319626 16711746
8.5417519 0.076645747 32.00787 16711746
7.3421836 -0.029269295 31.76335 16711746
10.771082 0.24155392 32.312374 16711746
6.6933303 -0.27296621 32.858185 16711746
6.7581797 -0.16303216 31.155285 16711746
9.7531862 0.15115584 32.99921 16711746
9.7974195 0.083966479 32.621246 16711746
9.2452497 0.22480361 32.920506 16711746
7.3039823 -0.13364357 32.401878 16711746
5.2086129 -0.48208207 35.736759 16711746
9.2596722 0.0212055 33.652294 16711746
6.0399528 -0.28929192 32.118042 16711746
