# .PCD v0.7 - Point Cloud Data file format
VERSION 0.7
FIELDS x y z rgb
SIZE 4 4 4 4
TYPE F F F F
COUNT 1 1 1 1
WIDTH 1189
HEIGHT 1
VIEWPOINT 0 0 0 1 0 0 0
POINTS 1189
DATA ascii
34.60759 -19.754999 49.845947 16711746
14.553518 -20.781311 45.674423 16711746
49.307903 -53.619144 65.841797 16711746
17.989334 -38.599705 37.245132 16711746
14.027798 -17.026234 47.081181 16711746
17.536131 -16.410244 44.853619 16711746
24.008081 -23.95355 48.813259 16711746
25.136539 -25.045366 48.276478 16711746
33.00412 -31.927202 60.766418 16711746
29.045486 -28.372316 55.196072 16711746
33.848114 -26.190567 56.916389 16711746
23.065294 -25.359592 48.629063 16711746
38.767059 -37.078732 67.338074 16711746
42.778133 -41.735016 78.813782 16711746
33.272923 -32.243935 60.905918 16711746
39.033272 -37.251484 67.516052 16711746
25.840134 -27.468655 52.582794 16711746
26.122162 -26.415237 47.400555 16711746
20.206434 -21.223179 46.948631 16711746
23.622318 -19.447393 50.303989 16711746
53.873611 -40.1348 74.546936 16711746
52.372204 -46.764606 67.713493 16711746
40.101204 -42.870651 59.331554 16711746
25.7491 -28.280823 52.820267 16711746
22.255066 -19.370766 46.038731 16711746
20.156878 -20.357994 48.079613 16711746
22.49844 -34.301025 63.489258 16711746
57.023109 -54.633053 67.909027 16711746
35.504227 -20.734253 56.232243 16711746
22.992447 -22.951176 44.924286 16711746
58.729614 -118.04812 105.89124 16711746
21.189547 -31.56592 51.518661 16711746
17.074043 -10.562524 45.64386 16711746
13.279696 -20.385292 45.680389 16711746
19.729477 -18.297684 46.66518 16711746
64.068718 -103.882 96.982605 16711746
25.172995 -25.182592 48.269112 16711746
10.428122 -20.972815 43.450417 16711746
6.0611186 -21.212158 43.009056 16711746
23.354677 -9.7414351 49.391693 16711746
23.428291 -18.697582 50.347404 16711746
9.2772493 -20.474577 46.16143 16711746
30.482409 -23.713528 44.671329 16711746
34.358288 -44.000702 68.064873 16711746
29.82835 -33.111053 64.574463 16711746
8.3051891 -36.725956 43.011036 16711746
25.864006 -17.481838 55.322296 16711746
24.003088 -22.177364 53.817814 16711746
22.694931 -20.481436 48.745018 16711746
26.198277 -20.089684 46.297054 16711746
23.669628 -19.769476 44.644886 16711746
25.440132 -21.79969 52.094788 16711746
24.289595 -16.968193 46.724392 16711746
26.404972 -18.079346 44.508121 16711746
24.202457 -20.494789 45.096962 16711746
25.386507 -27.865961 45.201015 16711746
21.433107 -24.257645 47.723755 16711746
24.561575 -21.291416 44.833668 16711746
25.789991 -19.327248 46.391003 16711746
22.141619 -18.450468 51.736027 16711746
20.407993 -22.149666 47.49242 16711746
21.54154 -23.155041 48.781582 16711746
21.821211 -31.23473 48.240799 16711746
25.050383 -20.864786 51.91592 16711746
24.764143 -13.047006 52.905468 16711746
23.738338 -24.77788 49.016273 16711746
24.714148 -17.66139 46.574501 16711746
28.219973 -33.095646 44.407867 16711746
27.770361 -20.118853 56.707371 16711746
21.668459 -12.759784 51.346401 16711746
19.480854 -23.280733 46.313549 16711746
23.266357 -18.65678 45.413406 16711746
24.97324 -17.030281 56.069881 16711746
22.370335 -14.323416 52.261547 16711746
20.556789 -20.283384 45.801208 16711746
26.159893 -11.791877 48.355827 16711746
25.270187 -21.083664 45.138176 16711746
26.056095 -23.451778 48.140579 16711746
21.982582 -16.580502 49.594421 16711746
16.800941 -5.0725079 48.79546 16711746
28.532948 -35.798637 54.061237 16711746
14.095887 -24.198759 48.994419 16711746
20.014265 -14.197166 50.505016 16711746
16.677334 -36.288418 45.083279 16711746
92.565712 -166.35126 124.11047 16711746
19.284925 -18.015369 45.343128 16711746
24.39362 -21.893984 49.963303 16711746
26.33247 -24.663931 49.296318 16711746
19.000404 -8.6345987 50.335911 16711746
3.2053952 -26.813492 40.426662 16711746
26.330805 -21.432604 45.288326 16711746
27.928247 -30.339123 59.686417 16711746
70.586861 -123.14948 97.576126 16711746
59.359608 -75.732681 107.15546 16711746
15.325744 -18.431187 55.691399 16711746
10.720869 -22.467922 57.75013 16711746
25.00997 -20.922115 46.192318 16711746
17.472878 -12.064746 48.259861 16711746
16.076731 -33.134918 47.006794 16711746
16.481701 -4.9956665 49.077869 16711746
23.253929 -19.690701 53.387291 16711746
23.22789 -17.577007 51.190403 16711746
27.273373 -18.609882 45.652699 16711746
18.909657 -17.172512 45.701309 16711746
38.867832 -31.392008 51.458801 16711746
30.787296 -36.297077 62.163776 16711746
17.866673 -60.715111 41.774502 16711746
12.807916 -15.973688 47.682457 16711746
18.264833 -12.606405 47.212864 16711746
16.724129 -24.198387 50.856735 16711746
28.177725 -27.033451 48.998993 16711746
21.256397 -29.381369 42.436939 16711746
21.099796 -21.51651 44.742504 16711746
24.46838 -17.673538 53.290016 16711746
15.417242 -18.434525 50.00127 16711746
30.128246 -23.031702 44.944271 16711746
16.71697 -21.525917 50.612118 16711746
28.604574 -13.331758 50.517818 16711746
22.861023 -24.510109 49.09288 16711746
14.140395 -17.360086 52.342587 16711746
23.279491 -30.12327 47.762993 16711746
19.489405 -21.285366 43.207573 16711746
23.597788 -19.322382 48.123165 16711746
25.10314 -24.677578 51.031246 16711746
16.751064 -21.502707 44.961193 16711746
13.267925 -24.169613 44.558414 16711746
27.678156 -29.071198 51.172672 16711746
22.71858 -22.668344 46.190083 16711746
25.390232 -23.221157 47.862022 16711746
26.332226 -23.80031 50.801926 16711746
20.28537 -19.734859 52.01823 16711746
33.843559 -24.241331 53.325634 16711746
14.348892 -24.626728 44.040417 16711746
23.22979 -21.152021 46.257336 16711746
16.642353 -18.627949 47.020428 16711746
24.954176 -20.888313 51.501331 16711746
13.110425 -24.740295 54.909031 16711746
24.469488 -35.40078 47.153469 16711746
24.437845 -21.968466 50.557697 16711746
27.544813 -28.487858 55.618336 16711746
24.750002 -21.913694 47.975803 16711746
16.623535 -19.458422 46.899616 16711746
18.545748 -18.704468 46.958027 16711746
30.412216 -17.260807 47.251671 16711746
23.163712 -14.93534 52.518753 16711746
27.124197 -24.77718 46.884483 16711746
25.16605 -25.810934 45.385685 16711746
25.296825 -22.320812 50.654026 16711746
32.462196 -31.373653 50.63979 16711746
11.30259 -24.62409 45.282875 16711746
16.119953 -21.88866 45.042664 16711746
32.805862 -39.684021 58.806091 16711746
30.658621 -20.392273 52.468155 16711746
28.015085 -26.9813 49.96566 16711746
26.282314 -27.088753 47.314323 16711746
28.415594 -27.022596 46.550262 16711746
11.578892 -23.906179 45.44862 16711746
9.189826 -24.125597 44.801006 16711746
15.564442 -26.165375 46.037689 16711746
27.008783 -18.863459 51.136013 16711746
20.756304 -20.240866 45.907654 16711746
26.920164 -17.597967 46.579548 16711746
28.366726 -27.308149 48.990234 16711746
29.489386 -17.689081 47.040512 16711746
17.637388 -18.959118 45.517124 16711746
19.873602 -16.385408 50.149776 16711746
23.22357 -27.217812 46.907948 16711746
23.143944 -23.581762 46.013298 16711746
12.880118 -23.52084 53.741688 16711746
24.728714 -23.013519 57.982357 16711746
22.059185 -16.984165 54.172695 16711746
26.760199 -15.32251 48.060204 16711746
24.850271 -19.899618 45.195766 16711746
21.393446 -20.744343 46.413074 16711746
17.67634 -19.813372 45.259796 16711746
13.108629 -26.523653 46.651768 16711746
25.572374 -18.017769 50.096184 16711746
29.188936 -24.304966 53.791428 16711746
18.629047 -18.39456 49.161819 16711746
25.518272 -25.546158 46.044346 16711746
33.828037 -24.443876 44.36784 16711746
11.757294 -24.853418 49.542679 16711746
22.152386 -31.986525 48.316208 16711746
14.116738 -22.89938 47.771851 16711746
16.623219 -21.375069 48.9795 16711746
14.141251 -36.043419 49.386993 16711746
13.149735 -21.126625 45.894821 16711746
16.522491 -15.520583 47.515892 16711746
29.929735 -19.556875 50.427238 16711746
29.195681 -18.198919 53.056152 16711746
29.475946 -22.759787 46.215538 16711746
33.768604 -22.511765 47.446705 16711746
27.82268 -14.879858 49.438187 16711746
18.225565 -20.088455 46.784767 16711746
19.564026 -17.199251 51.38921 16711746
15.461263 -17.890839 47.158573 16711746
17.816339 -26.476862 45.39336 16711746
18.076462 -15.267573 46.605228 16711746
17.869616 -19.695774 46.217239 16711746
18.346491 -22.117132 45.197315 16711746
11.065045 -42.161533 47.691959 16711746
12.782649 -24.591948 47.134438 16711746
16.490923 -18.194853 48.97715 16711746
16.655222 -29.181866 49.913914 16711746
9.2493382 -22.788975 48.999161 16711746
14.888259 -22.11286 44.773178 16711746
17.353868 -19.568874 45.551914 16711746
16.993549 -24.954794 43.895515 16711746
13.568496 -21.105385 47.11335 16711746
28.767868 -19.463146 49.184742 16711746
33.567066 -22.244812 47.460663 16711746
3.9255872 -24.663706 52.627811 16711746
19.407339 -15.974841 51.125076 16711746
12.166855 -16.639439 46.739189 16711746
28.639189 -21.963467 45.331161 16711746
19.488417 -18.610706 45.251942 16711746
17.39666 -14.111979 48.419075 16711746
25.829575 -12.902921 47.625561 16711746
23.008533 -24.42585 48.972221 16711746
16.466999 -15.644767 49.945095 16711746
31.850817 -36.418201 67.662163 16711746
25.519896 -19.272354 51.712353 16711746
25.781429 -26.981133 47.831615 16711746
26.264711 -22.876923 52.319233 16711746
13.705001 -19.801092 44.464821 16711746
21.700962 -19.526525 45.754166 16711746
17.738207 -20.784626 45.546642 16711746
11.953499 -19.604233 47.22147 16711746
10.870107 -18.726368 47.299934 16711746
31.505009 -32.852409 51.367527 16711746
27.210976 -25.65439 50.314388 16711746
26.048763 -32.439091 48.179382 16711746
25.732836 -18.717274 53.080772 16711746
5.3564816 -51.526848 48.473248 16711746
39.826183 -35.980038 64.762024 16711746
36.445683 -30.851974 63.80545 16711746
25.106066 -25.364065 47.959721 16711746
32.98727 -39.486023 64.126915 16711746
12.706497 -16.043837 47.679329 16711746
12.734132 -15.926916 47.420155 16711746
12.44073 -16.898335 47.506371 16711746
7.9945655 -25.141943 46.507874 16711746
7.6158748 -26.046806 46.279503 16711746
18.010199 -16.556137 46.190662 16711746
21.592209 -21.452208 47.75412 16711746
17.897526 -12.810119 53.634777 16711746
15.831427 -14.605384 47.848866 16711746
10.062604 -27.119476 45.765953 16711746
12.26557 -17.063683 46.993675 16711746
1.2472799 -26.322985 56.234169 16711746
30.841112 -35.203098 62.652401 16711746
27.129387 -18.454649 52.6562 16711746
25.039783 -18.159126 51.799015 16711746
24.251898 -16.804907 52.117908 16711746
28.504272 -21.723482 51.230309 16711746
25.991592 -15.922915 50.89798 16711746
29.595592 -22.45845 52.078907 16711746
24.455219 -16.408182 51.201092 16711746
23.407383 -17.976549 48.609241 16711746
23.408134 -18.35006 48.805496 16711746
21.779222 -15.565563 48.756229 16711746
27.494705 -15.704401 55.185062 16711746
27.09721 -13.513576 51.032104 16711746
22.621735 -19.477501 50.534111 16711746
24.445011 -20.531898 51.112034 16711746
15.134166 -18.776661 46.310368 16711746
14.825573 -20.999735 45.766155 16711746
4.5199089 -24.312834 42.83942 16711746
25.561058 -22.007784 51.710228 16711746
16.177746 -10.602026 49.454479 16711746
25.680651 -26.496994 51.712799 16711746
30.859966 -33.153824 66.696274 16711746
31.258535 -37.014091 58.907375 16711746
35.976318 -29.187584 63.474857 16711746
28.089878 -20.932142 46.389099 16711746
26.573109 -18.366341 49.247196 16711746
20.569645 -20.462132 45.687809 16711746
20.424522 -29.297125 50.900505 16711746
27.350264 -23.547419 51.788479 16711746
19.669363 -24.165609 49.261055 16711746
26.18858 -19.66078 48.007839 16711746
21.034599 -21.824286 46.582355 16711746
31.024212 -26.940735 56.070885 16711746
19.664246 -24.195087 49.079273 16711746
32.507904 -39.151829 64.181938 16711746
24.982145 -17.583921 48.054672 16711746
31.194157 -36.618713 63.053726 16711746
26.9475 -20.893118 47.979233 16711746
26.50511 -24.695026 51.369904 16711746
29.54656 -21.730726 53.207806 16711746
16.705462 -29.300001 51.870117 16711746
30.618788 -24.58246 54.344177 16711746
27.676289 -19.130821 57.017841 16711746
38.08778 -36.869473 59.783161 16711746
30.782162 -33.099869 66.870674 16711746
16.959394 -20.582178 46.960384 16711746
18.035257 -19.564907 49.08868 16711746
24.503744 -24.297434 49.093914 16711746
18.225163 -10.762036 54.064762 16711746
20.019066 -22.34132 50.031952 16711746
22.17874 -21.378807 46.511333 16711746
25.106697 -23.420282 48.405525 16711746
24.742239 -21.669729 49.374485 16711746
31.595491 -36.30938 58.319035 16711746
32.020027 -37.596157 58.552307 16711746
37.143631 -44.266449 77.046577 16711746
17.671913 -24.124748 52.964779 16711746
39.050987 -31.501856 59.231392 16711746
27.970808 -26.323597 52.382599 16711746
22.527601 -21.482615 45.61697 16711746
16.394602 -25.127054 51.247105 16711746
30.624886 -35.135403 57.939762 16711746
33.797142 -31.252932 57.392597 16711746
19.529051 -24.050339 51.008003 16711746
11.176247 -27.348997 55.212761 16711746
43.754601 -48.178261 75.906448 16711746
17.999775 -22.813852 55.002804 16711746
33.560375 -28.692146 55.128941 16711746
16.385807 -22.480068 50.676022 16711746
16.601053 -17.493589 49.026203 16711746
19.49115 -22.824661 51.000549 16711746
18.653793 -25.380188 53.904327 16711746
46.340748 -29.315378 51.092407 16711746
23.397997 -21.887583 48.605232 16711746
11.408425 -29.154734 55.726665 16711746
31.979483 -37.471478 58.469986 16711746
24.147991 -25.101536 50.183701 16711746
52.456398 -30.791586 53.927841 16711746
19.332058 -18.792114 50.708447 16711746
41.041065 -39.799141 75.695862 16711746
45.905651 -42.449421 64.67144 16711746
40.877563 -35.258057 66.689598 16711746
31.332235 -36.29026 58.247063 16711746
19.745953 -21.198359 50.617847 16711746
13.68831 -19.797997 47.196598 16711746
25.479155 -28.814087 50.015995 16711746
14.41754 -19.264532 48.3624 16711746
41.393936 -32.963467 55.760693 16711746
52.96273 -41.743492 60.82016 16711746
19.64777 -17.123461 48.798897 16711746
12.193219 -26.844048 56.382549 16711746
41.766716 -34.661385 60.093693 16711746
18.792673 -21.468376 47.805958 16711746
39.152725 -35.095264 46.376099 16711746
20.422102 -25.175241 50.563152 16711746
20.094316 -27.927767 50.02935 16711746
18.915133 -22.795439 49.58226 16711746
29.073738 -22.943306 55.020336 16711746
31.576656 -19.611635 54.685635 16711746
28.812639 -27.992029 46.365845 16711746
15.085731 -27.261736 54.685257 16711746
25.851377 -33.88448 67.954132 16711746
17.630827 -10.600286 52.302593 16711746
22.419094 -45.777645 49.930702 16711746
36.022232 -47.018433 73.348152 16711746
31.371748 -29.123898 57.416416 16711746
10.401791 -24.281088 51.44754 16711746
16.255184 -21.52709 50.810436 16711746
8.351162 -27.942986 52.585136 16711746
26.639915 -22.405294 51.988926 16711746
10.922474 -18.960024 49.187794 16711746
16.392458 -24.259121 50.791775 16711746
15.097125 -36.13488 47.846184 16711746
16.192739 -21.658293 49.131824 16711746
22.185646 -17.845278 50.256248 16711746
13.588975 -19.57682 47.16272 16711746
17.969505 -26.346769 48.920433 16711746
24.275925 -27.365973 50.413269 16711746
11.659027 -20.028458 48.667862 16711746
30.203856 -24.759167 56.683968 16711746
17.557817 -17.000759 49.942326 16711746
13.831974 -22.485691 51.892262 16711746
17.57283 -20.898027 46.053417 16711746
7.7020183 -13.887143 51.750957 16711746
11.345125 -25.577557 48.862473 16711746
4.2278275 -19.492661 49.201283 16711746
22.249165 -16.309132 48.632725 16711746
29.526506 -18.609953 52.24683 16711746
15.281357 -28.873281 49.367142 16711746
13.65049 -23.188534 51.831978 16711746
8.4022312 -18.557072 48.72765 16711746
33.128105 -27.427469 53.502018 16711746
27.703381 -22.89912 52.464199 16711746
28.758905 -29.03002 49.455032 16711746
10.258899 -18.524536 48.397079 16711746
10.819859 -23.633474 48.884926 16711746
29.846937 -31.220575 57.359661 16711746
25.552578 -23.030273 51.614445 16711746
15.920952 -21.382637 49.918102 16711746
25.096113 -26.797802 48.352539 16711746
27.269636 -24.563404 52.722351 16711746
16.356113 -24.837105 50.767063 16711746
9.5690584 -21.281481 50.524624 16711746
29.84359 -24.364344 54.992435 16711746
24.784725 -25.752857 51.341461 16711746
35.154877 -26.163748 51.55397 16711746
9.4171762 -21.529142 50.53373 16711746
7.4395752 -20.469597 47.630379 16711746
5.6179309 -18.817158 53.936798 16711746
7.360363 -20.178133 48.312397 16711746
17.63299 -18.802942 48.478104 16711746
7.3149977 -20.611515 47.57531 16711746
24.075697 -20.461773 49.139709 16711746
20.653915 -22.019783 48.786568 16711746
17.43955 -15.404498 48.516506 16711746
17.439169 -15.246274 48.804661 16711746
-23.668285 -71.263214 36.061829 16711746
19.03212 -68.134499 39.709476 16711746
42.245556 -60.698853 75.711472 16711746
21.971495 -15.690859 56.162251 16711746
20.064167 -25.42695 59.209137 16711746
16.519539 -12.949007 48.77972 16711746
30.171806 -37.831978 54.536449 16711746
22.683615 -19.657099 47.103767 16711746
26.611221 -24.406233 51.869598 16711746
28.503002 -33.604752 60.334251 16711746
20.919493 -24.854727 48.021896 16711746
5.2685823 -25.029465 56.377823 16711746
35.747261 -29.225639 52.008198 16711746
35.311298 -44.709888 62.888988 16711746
25.327665 -24.30217 49.937534 16711746
35.085773 -19.427502 51.254051 16711746
21.675322 -21.466648 49.631283 16711746
8.2246609 -22.721382 47.530121 16711746
22.951412 -21.861994 48.651833 16711746
16.766832 -20.064802 49.800755 16711746
17.826235 -5.5038528 52.419403 16711746
11.992097 -18.90045 48.985222 16711746
21.939764 -24.253925 49.072559 16711746
9.132946 -19.55418 46.697105 16711746
17.184303 -19.770164 50.171425 16711746
18.628311 -22.050573 48.52594 16711746
19.069078 -21.715752 49.622158 16711746
16.552023 -20.525143 49.087402 16711746
48.781181 -48.351681 87.019791 16711746
18.736107 -20.833103 47.976906 16711746
22.965565 -23.407278 49.351681 16711746
33.310093 -41.294365 70.760674 16711746
31.653749 -35.20982 73.154358 16711746
-19.187145 -57.758652 40.365116 16711746
21.170019 -31.176847 59.813385 16711746
2.9871383 -20.526932 49.743851 16711746
18.492237 -20.837603 48.044193 16711746
12.0495 -20.199152 51.777859 16711746
18.760036 -24.459492 47.042046 16711746
9.1325159 -28.590149 51.15675 16711746
11.030214 -21.504011 47.475651 16711746
10.322493 -23.748238 51.472946 16711746
9.8702211 -18.502342 47.531696 16711746
8.514657 -22.700937 47.01635 16711746
9.7321815 -16.568419 48.849255 16711746
12.24922 -16.112801 48.413235 16711746
9.6696968 -19.041332 47.282692 16711746
7.3367834 -13.902048 48.880463 16711746
30.783707 -25.571688 53.266541 16711746
11.080893 -18.056204 47.083027 16711746
10.405207 -15.906991 47.411022 16711746
17.548023 -21.651546 47.873684 16711746
11.208098 -23.426165 46.29369 16711746
12.254903 -14.953895 48.315952 16711746
7.472198 -15.656894 47.734081 16711746
16.506664 -17.027628 51.721809 16711746
28.166327 -33.223179 47.757179 16711746
37.132591 -41.418186 50.047577 16711746
16.784145 -17.693121 48.730255 16711746
16.324495 -19.591991 48.541836 16711746
31.582401 -35.573933 64.443802 16711746
29.474974 -32.722786 61.684982 16711746
9.5112553 -20.19206 47.784359 16711746
16.934771 -15.404999 49.662075 16711746
14.205628 -17.099016 51.708237 16711746
11.694156 -15.10562 47.84481 16711746
5.2406259 -16.559439 49.988808 16711746
26.720881 -24.698586 48.566032 16711746
18.591812 -6.350018 53.44458 16711746
18.222183 -5.4120216 53.040985 16711746
6.6572065 -15.357434 48.19207 16711746
37.209408 -40.29501 64.372261 16711746
-13.350681 -32.958588 57.407051 16711746
12.456491 -19.975742 46.597588 16711746
9.8426695 -21.275045 47.494541 16711746
9.314105 -16.729345 46.685989 16711746
32.540394 -40.278576 59.705147 16711746
29.023691 -35.34145 56.882938 16711746
8.5999603 -20.970963 46.597275 16711746
31.705866 -40.638298 63.216774 16711746
30.952566 -33.010086 46.911541 16711746
27.212851 -29.306065 52.639008 16711746
34.668961 -39.505009 51.263531 16711746
27.957958 -31.85973 59.062157 16711746
28.902399 -28.985907 50.053467 16711746
21.828833 -28.694508 47.219437 16711746
36.209557 -28.15633 65.151825 16711746
29.074406 -26.899853 49.23838 16711746
37.755562 -27.248144 50.78738 16711746
39.571651 -27.465837 50.164185 16711746
14.633041 -25.862848 45.423229 16711746
29.035942 -29.173576 70.672661 16711746
9.0703049 -20.186867 47.055607 16711746
8.7120962 -21.917442 47.802498 16711746
12.259108 -19.001736 46.49931 16711746
30.960545 -34.402786 59.407913 16711746
26.887663 -30.171574 56.151825 16711746
40.137241 -36.51442 73.612015 16711746
31.583906 -42.778053 73.880852 16711746
34.782551 -37.874981 50.731403 16711746
12.400805 -18.820347 47.083862 16711746
33.702831 -32.036049 49.760765 16711746
34.282394 -42.018291 60.872559 16711746
27.564749 -31.719112 56.353149 16711746
35.574745 -41.789822 46.095203 16711746
27.751642 -41.406403 64.614243 16711746
15.163384 -21.072023 46.828911 16711746
59.17622 -91.156258 99.694664 16711746
50.630482 -77.500359 78.717545 16711746
33.437622 -40.430698 70.289528 16711746
21.884577 -24.423063 48.528805 16711746
25.355972 -24.356253 52.766598 16711746
39.049946 -37.553688 57.160561 16711746
23.714777 -19.210464 52.297844 16711746
21.433178 -22.66045 48.995922 16711746
24.390839 -18.966787 50.303146 16711746
25.108442 -16.848688 55.995209 16711746
31.515493 -25.35004 55.952385 16711746
31.361116 -24.897305 58.429939 16711746
30.011765 -21.356741 55.893078 16711746
24.052114 -21.54245 52.603588 16711746
23.827259 -21.983149 51.700165 16711746
11.590047 -31.069681 60.530869 16711746
27.787094 -27.279701 51.784592 16711746
30.433228 -33.207779 63.626503 16711746
33.839909 -29.375904 59.10157 16711746
32.612709 -38.383537 60.090187 16711746
33.574383 -28.250013 56.282776 16711746
30.161554 -37.162914 62.289738 16711746
32.476208 -41.314396 61.83366 16711746
39.88567 -33.061569 67.714813 16711746
47.25222 -59.13184 84.202629 16711746
9.5222931 -33.441177 49.387737 16711746
37.774467 -41.396599 74.190956 16711746
16.726526 -17.14925 56.231403 16711746
29.160099 -33.752705 75.304077 16711746
31.281275 -33.7197 73.944221 16711746
33.075142 -30.29929 63.984047 16711746
24.128319 -43.095837 64.627228 16711746
23.67347 -17.639015 60.741165 16711746
19.870239 -19.466284 49.971588 16711746
23.814953 -17.210142 51.176201 16711746
19.577179 -17.61211 50.425095 16711746
10.062943 -23.259117 49.865559 16711746
28.808685 -17.476381 50.956779 16711746
5.9900522 -23.280243 60.820915 16711746
19.279726 -19.109404 50.712181 16711746
6.0549231 -22.961828 49.372307 16711746
16.891623 -26.864862 46.810165 16711746
23.838131 -21.634701 53.47234 16711746
13.5253 -20.957546 57.124851 16711746
12.826843 -18.380529 51.584583 16711746
13.635894 -23.739405 53.435352 16711746
7.0695062 -21.099295 49.816528 16711746
29.408052 -23.697315 55.008438 16711746
26.954027 -23.154856 52.634609 16711746
22.859196 -34.929184 64.507042 16711746
10.681336 -25.225431 50.481358 16711746
12.672965 -22.731249 55.753803 16711746
18.268545 -22.265375 50.022915 16711746
19.568993 -17.584221 50.408409 16711746
26.491205 -24.679602 50.941605 16711746
28.161932 -23.619123 50.561825 16711746
21.44014 -18.510811 51.527935 16711746
25.528521 -20.810539 53.136257 16711746
10.492114 -17.613092 60.060265 16711746
15.621632 -23.592119 57.63916 16711746
9.2689362 -14.801363 53.869511 16711746
10.666558 -25.564365 50.341061 16711746
16.632494 -12.808786 53.617081 16711746
24.687653 -13.739251 55.822922 16711746
16.584436 -17.763273 57.474239 16711746
3.9776008 -19.851683 54.659348 16711746
33.131905 -35.580772 69.112724 16711746
38.305325 -51.812893 77.505646 16711746
31.128981 -25.718616 50.84935 16711746
40.611248 -61.377869 71.030785 16711746
17.466848 -43.757874 40.783253 16711746
84.164131 -185.80896 149.20981 16711746
22.710794 -12.153856 53.811306 16711746
25.209795 -13.932737 53.86898 16711746
22.421177 -17.864527 50.852234 16711746
24.135809 -13.088815 53.951466 16711746
22.369274 -14.202746 52.013927 16711746
25.218258 -18.685682 54.525616 16711746
15.656459 -12.655766 55.72271 16711746
23.479988 -12.026112 55.24403 16711746
16.098389 -11.25421 55.518856 16711746
19.321188 -17.661747 58.894024 16711746
24.539181 -28.236176 62.712311 16711746
24.839563 -22.766907 55.934593 16711746
26.977531 -23.158056 50.205391 16711746
25.235765 -23.690321 55.939945 16711746
23.296116 -25.151428 61.015408 16711746
11.917759 -18.551676 51.156559 16711746
24.778454 -15.825665 53.082497 16711746
17.678755 -5.442924 54.65546 16711746
30.715521 -35.282883 63.169331 16711746
34.63699 -121.60799 101.56686 16711746
26.745502 -22.634195 63.067047 16711746
26.707745 -22.753941 63.132217 16711746
24.74251 -28.059242 49.103905 16711746
17.376883 -20.486071 54.635658 16711746
14.328791 -13.151258 52.45396 16711746
15.793791 -19.768978 49.75235 16711746
15.998334 -16.988203 50.729702 16711746
23.380497 -13.779187 55.462658 16711746
15.6078 -18.080873 50.488674 16711746
14.270265 -19.714455 51.631527 16711746
10.705701 -14.257697 52.02676 16711746
26.477772 -16.245405 53.281582 16711746
21.874697 -19.758884 58.037842 16711746
24.197565 -15.171894 53.340271 16711746
13.601811 -27.467989 48.89518 16711746
11.425357 -28.295732 57.493099 16711746
12.423959 -24.766182 57.543652 16711746
34.901157 -34.277233 61.594707 16711746
28.746124 -30.389019 50.538471 16711746
24.958891 -17.252821 58.864578 16711746
42.225479 -64.318748 70.501678 16711746
24.406427 -11.384428 52.747295 16711746
21.90452 -10.699079 53.590771 16711746
37.502773 -28.270695 55.957165 16711746
25.759253 -13.718143 53.546436 16711746
27.755087 -22.416983 55.247204 16711746
33.790554 -25.695742 61.673721 16711746
30.281214 -26.192484 62.103741 16711746
24.908424 -14.443171 53.460121 16711746
29.800549 -23.294075 53.212357 16711746
27.17609 -13.599577 54.874153 16711746
35.536354 -21.93252 63.801594 16711746
28.35714 -13.502023 55.203533 16711746
28.533421 -17.604355 55.165211 16711746
22.414385 -20.251507 60.049809 16711746
49.422756 -121.36479 92.171402 16711746
56.38842 -117.99454 101.58978 16711746
28.20809 -22.32947 58.40871 16711746
31.513302 -35.057365 54.944622 16711746
27.279737 -15.724699 54.999439 16711746
33.336273 -40.677391 59.767845 16711746
30.023895 -31.57939 54.968964 16711746
34.249271 -32.875507 64.274811 16711746
43.692261 -40.471748 74.431793 16711746
20.474382 -7.861403 55.696411 16711746
52.592842 -126.76953 122.20792 16711746
29.989548 -21.152313 55.268448 16711746
24.684393 -19.45204 53.20137 16711746
18.730093 -10.9194 57.682529 16711746
33.373775 -24.863548 62.538544 16711746
27.154224 -22.456907 52.786545 16711746
25.368622 -14.743055 53.784077 16711746
19.901546 -8.6140528 56.695038 16711746
14.30296 -17.900608 56.018852 16711746
7.8160801 -26.557051 45.781975 16711746
7.6519461 -26.500292 45.77066 16711746
11.248319 -20.446274 49.206799 16711746
27.975496 -15.878585 54.191895 16711746
21.163008 -8.4947758 56.538727 16711746
18.929449 -5.8616629 55.346207 16711746
17.365751 -11.337021 54.663803 16711746
15.08446 -18.57147 55.028328 16711746
25.663071 -34.614746 46.350296 16711746
20.170475 -10.941262 54.160839 16711746
33.804157 -60.891567 66.877289 16711746
42.474789 -54.820381 76.631104 16711746
61.288296 -54.844734 69.616966 16711746
29.359787 -44.418762 53.082272 16711746
33.321064 -44.301872 59.706264 16711746
54.401173 -46.99519 70.215599 16711746
29.636858 -37.302139 57.0746 16711746
27.130537 -39.532223 55.02866 16711746
37.995304 -50.530285 60.560261 16711746
45.305622 -39.363522 72.169373 16711746
12.397988 -46.437538 54.036942 16711746
16.568409 -22.89596 55.503414 16711746
23.166468 -50.468102 50.345093 16711746
18.469519 -30.869081 51.683857 16711746
35.092411 -52.543198 50.409065 16711746
60.962261 -54.316288 69.616852 16711746
61.20895 -56.414581 71.073853 16711746
14.887576 -32.307117 57.444355 16711746
13.230743 -43.223927 56.681072 16711746
13.367512 -49.428349 60.267612 16711746
39.984192 -48.156307 67.057434 16711746
21.414322 -47.749352 53.925823 16711746
20.59301 -38.737137 53.260342 16711746
22.996424 -32.801544 51.358299 16711746
5.2109523 -26.356392 44.606194 16711746
13.240704 -50.357105 60.238914 16711746
39.746479 -37.698051 64.581238 16711746
62.509628 -51.943897 76.898254 16711746
41.750641 -58.636101 60.132591 16711746
38.148342 -51.860012 64.608154 16711746
22.827351 -46.931427 50.949608 16711746
46.076965 -42.824112 76.240051 16711746
46.714199 -39.676182 74.005478 16711746
39.942142 -33.582809 58.786827 16711746
12.387844 -36.56274 52.641098 16711746
34.427349 -49.436527 49.582905 16711746
19.327394 -39.261425 51.693134 16711746
3.2775254 -30.07551 42.758396 16711746
7.926158 -59.031891 69.559387 16711746
58.778675 -48.010521 75.132729 16711746
37.850952 -43.606251 54.078594 16711746
27.001663 -40.553055 56.008911 16711746
29.562958 -35.093117 51.577946 16711746
33.484726 -44.223286 55.837124 16711746
18.065891 -47.538998 54.471107 16711746
17.312794 -28.933788 52.15992 16711746
41.793701 -36.094219 59.173199 16711746
49.010014 -48.572987 62.343727 16711746
62.345055 -55.548252 67.208839 16711746
49.089386 -52.034306 47.604538 16711746
34.585155 -50.489243 52.750641 16711746
13.700232 -45.832512 59.545521 16711746
18.080303 -11.286972 54.693699 16711746
16.247416 -30.274393 52.381035 16711746
42.082264 -63.627777 74.0037 16711746
7.555974 -20.505684 48.255062 16711746
58.193909 -51.647026 70.367767 16711746
9.4394531 -30.514408 63.672546 16711746
17.20039 -21.874641 50.768627 16711746
40.999836 -45.814037 78.499077 16711746
15.678617 -21.568134 57.298233 16711746
17.333828 -11.986266 56.258217 16711746
10.800383 -19.440712 49.087608 16711746
34.173267 -67.617661 84.2677 16711746
30.548466 -31.971216 68.768097 16711746
19.174425 -16.718594 56.753086 16711746
44.471508 -107.87064 101.52039 16711746
-15.473722 -46.396935 67.880417 16711746
16.554165 -51.156727 53.033592 16711746
30.799244 -36.843246 56.690136 16711746
20.993118 -43.757149 52.939613 16711746
26.517544 -23.024853 63.789478 16711746
42.68198 -41.860558 56.503746 16711746
32.269547 -39.249466 52.601742 16711746
10.335249 -24.808382 60.824638 16711746
23.623953 -45.700371 52.032166 16711746
20.559891 -33.492138 52.39941 16711746
7.0240431 -45.893147 56.060123 16711746
9.8668966 -45.390728 54.199131 16711746
12.391224 -32.817062 49.488403 16711746
33.181328 -44.845776 57.878902 16711746
14.176911 -31.849531 57.189869 16711746
15.824052 -5.8069534 55.129566 16711746
30.901531 -44.387539 71.511925 16711746
24.024765 -37.255501 71.374954 16711746
16.210186 -46.150566 57.729805 16711746
16.998722 -24.159342 56.367153 16711746
28.764889 -30.60313 64.123795 16711746
27.994673 -25.862879 53.021355 16711746
26.629845 -57.874821 72.438538 16711746
22.067024 -13.545154 60.544598 16711746
8.5839472 -37.346096 58.453018 16711746
20.179686 -11.330152 54.163712 16711746
17.602549 -10.25624 54.31324 16711746
95.432159 -180.35332 125.63404 16711746
13.277915 -19.948448 56.836685 16711746
29.23908 -28.004562 67.617767 16711746
27.128653 -74.738388 78.066948 16711746
1.9635369 -338.71353 -14.310354 16711746
32.626614 -24.632502 52.236259 16711746
4.6124907 -302.81921 -7.3854747 16711746
24.482906 -16.040897 52.606194 16711746
22.177702 -15.222961 56.04987 16711746
33.301411 -47.533733 50.998596 16711746
34.395226 -47.340275 61.608597 16711746
17.677109 -6.2967944 55.518295 16711746
10.780287 -10.064276 55.775204 16711746
9.6066866 -11.10529 55.712902 16711746
10.104862 -10.59655 55.674122 16711746
29.87207 -32.495609 67.973938 16711746
17.147131 -5.2452168 55.496609 16711746
10.67666 -17.182106 49.93642 16711746
22.574551 -16.478907 58.831394 16711746
8.1433268 -32.491982 65.841133 16711746
15.784264 -26.991259 51.506653 16711746
27.558249 -72.738419 70.816055 16711746
36.797207 -33.950394 56.879745 16711746
0.73593003 -64.096642 57.097015 16711746
25.685726 -26.452854 48.630074 16711746
37.704567 -32.362984 56.613899 16711746
36.686329 -55.640472 51.70768 16711746
16.719038 -11.216323 53.87701 16711746
16.591822 -7.1212554 55.412189 16711746
26.082239 -21.88835 53.328312 16711746
32.322269 -36.17062 47.106686 16711746
22.365215 -35.806721 62.550587 16711746
16.069986 -18.925507 56.140663 16711746
26.698774 -24.626755 64.486488 16711746
17.285149 -13.042189 55.797382 16711746
-32.933807 -77.934166 98.005585 16711746
26.78882 -24.18067 64.052925 16711746
15.665595 -21.524313 49.971222 16711746
14.614512 -23.596292 49.291218 16711746
17.960855 -4.7540393 56.29327 16711746
8.3019037 -15.01928 59.651821 16711746
6.2115722 -13.691431 56.193306 16711746
10.335995 -10.17966 56.155605 16711746
8.6949825 -12.289278 56.594578 16711746
12.181242 -12.56902 58.708408 16711746
21.864845 -12.929204 60.126892 16711746
7.7547135 -15.264567 57.557411 16711746
7.6655812 -16.542328 56.483158 16711746
15.517088 -10.259689 55.966602 16711746
9.2296247 -13.915056 58.335884 16711746
26.662436 -25.064129 55.057583 16711746
12.410956 -12.435468 58.046844 16711746
18.492552 -12.235216 53.606316 16711746
30.043322 -20.488541 55.775223 16711746
17.664686 -32.883053 50.665379 16711746
27.280361 -30.395359 53.856571 16711746
18.38899 -8.6611462 57.082752 16711746
37.994022 -18.717251 56.077686 16711746
25.274151 -19.408278 64.78743 16711746
27.393751 -19.26873 56.464436 16711746
-4.6417036 -4.8576236 -1.4697719 16711746
7.8257565 -10.753579 -3.9773493 16711746
-5.8171835 -7.7353439 4.1881304 16711746
-6.7588644 -6.150506 2.2578473 16711746
-8.5300274 -6.7896824 2.6283257 16711746
-7.4680934 -8.1911774 1.9288082 16711746
-9.8298893 -9.6845341 3.7087057 16711746
-6.5646234 -6.0623269 2.2213361 16711746
-6.3675289 -8.0618553 3.9499912 16711746
-7.8006201 -7.6734643 2.2302938 16711746
-8.8716946 -8.6564331 2.4878192 16711746
-7.7691808 -5.5699105 0.90235013 16711746
-11.222098 -11.194608 3.9004366 16711746
-27.298662 -21.140318 -2.9342124 16711746
-90.508675 -67.585159 -5.7005877 16711746
-5.1041598 -5.3877249 2.8846033 16711746
-8.8265829 -9.7527361 6.2276659 16711746
8.5064297 -23.217506 -8.8966627 16711746
-14.738754 -10.153329 1.6462132 16711746
-10.397676 -57.711723 -9.2622871 16711746
-5.3846259 -4.2514744 -0.06961666 16711746
-6.0084195 -4.9369316 1.706377 16711746
-2.9328377 -15.258976 -3.8381438 16711746
9.3425694 -7.5816207 -3.1506612 16711746
-2.5072711 -10.648863 -2.3776412 16711746
-5.1529551 -6.6208777 3.2223377 16711746
-8.5445194 -8.4031105 3.2503915 16711746
-5.9342523 -5.548686 2.1445696 16711746
-6.6550388 -6.8601599 2.1866777 16711746
-5.772686 -16.294256 -6.3175092 16711746
-9.8863955 -9.0083885 3.8635876 16711746
-10.407649 -8.9414711 3.7687178 16711746
-6.3399739 -9.5995483 4.3674254 16711746
-5.9941401 -10.251883 -4.3565211 16711746
-4.4608064 -4.2090969 0.37631524 16711746
-1.7865642 -2.9292102 1.2260597 16711746
-6.1072454 -5.1792336 2.4833035 16711746
-4.6766729 -5.9819818 2.8858571 16711746
-7.7132592 -31.559151 -6.16958 16711746
-4.8527856 -7.2344685 2.8614154 16711746
-8.2074461 -8.3212051 2.6576397 16711746
-7.5090647 -8.2211723 2.3923421 16711746
-3.886168 -12.60019 -4.6859574 16711746
-7.2122631 -6.6368589 2.5687897 16711746
8.0219173 -17.489105 -2.426734 16711746
-2.6433728 -3.3482096 1.9214087 16711746
-7.7615418 -10.419384 4.1658401 16711746
-11.683929 -11.667135 4.0511813 16711746
-14.646442 -12.803722 4.5296373 16711746
-1.4925948 -8.3243284 -1.8475479 16711746
-1.273701 -7.8551822 -2.3332655 16711746
-8.4266348 -7.919333 0.79481286 16711746
-5.6884761 -7.1377745 -2.3613303 16711746
-5.9410853 -15.0418 -5.5947361 16711746
-3.8012054 -3.4861822 1.4818672 16711746
-3.1724916 -5.0190492 2.6041474 16711746
-6.8429823 -7.9635592 4.5676875 16711746
7.8265452 -17.892763 3.2817276 16711746
2.0260661 -4.8282137 1.6868044 16711746
4.3115187 -8.7561083 1.8372965 16711746
4.3051224 -10.038646 1.7516882 16711746
4.9354134 -9.4192314 1.1795003 16711746
5.2045779 -7.7690425 -0.5591377 16711746
6.4481106 -10.453729 -0.81313336 16711746
-6.1392817 -4.8976641 -0.28410786 16711746
5.4385786 -6.9515634 -2.9260542 16711746
-5.2213287 -5.1505437 -0.85083848 16711746
6.8207932 -14.548897 5.2819843 16711746
3.7900653 -7.6511388 1.6065201 16711746
-2.9331493 -6.8099785 -2.1628768 16711746
-15.83656 -15.396461 -2.4309909 16711746
-4.0857573 -5.4916101 -1.8746921 16711746
-2.8569019 -7.3958378 -2.4145312 16711746
5.937573 -11.542031 1.438606 16711746
-2.6011043 -3.5644135 -0.79871368 16711746
-3.9857407 -4.5239258 -1.0935811 16711746
-4.9209447 -5.3182983 -1.4390306 16711746
-5.6648436 -5.5451126 -1.5440629 16711746
-3.6541872 -6.9696865 -2.8458595 16711746
-7.3247786 -6.5080366 -1.1108217 16711746
-6.1637468 -5.4493589 -1.6854469 16711746
1.1784199 -1.6574262 0.90461814 16711746
-4.2909279 -6.3198276 -1.7092006 16711746
-6.5320964 -4.8739896 1.2848663 16711746
5.8719969 -8.5643501 1.3647401 16711746
3.775049 -8.6585197 1.4876262 16711746
2.5778115 -4.2499566 -1.1293771 16711746
7.5959525 -11.315891 -0.44087446 16711746
-16.804197 -24.139269 -9.0862179 16711746
-2.1531341 -2.9065444 -1.2660561 16711746
-1.8020502 -2.9222453 -1.4264896 16711746
-3.035388 -4.0458822 -0.91568416 16711746
2.431927 -5.6072454 -2.028271 16711746
2.6561999 -5.9249587 0.63014591 16711746
6.115521 -12.749749 1.2327935 16711746
4.3333054 -9.0215845 -1.2182822 16711746
-5.9902544 -6.3506136 -1.7299585 16711746
-5.9511995 -5.0940394 -0.12714103 16711746
-4.4448853 -6.86449 -3.1003091 16711746
3.3273864 -6.7077518 -1.7702553 16711746
5.9509783 -14.657141 -4.7107882 16711746
-7.1210976 -5.9021292 -0.8697266 16711746
-9.2464533 -7.7633648 -1.8407048 16711746
-7.1295142 -6.369422 -1.5280856 16711746
1.1439729 -1.5983638 0.86644322 16711746
8.3362503 -10.759799 0.8935979 16711746
5.7761726 -13.376982 2.7894185 16711746
6.3299685 -11.524285 2.0657456 16711746
5.6288109 -11.831163 4.2776875 16711746
-0.72596079 -3.7691348 -1.4411552 16711746
-1.0746741 -4.1829872 -1.6804475 16711746
-6.2818379 -5.7011185 -1.8147794 16711746
-13.703083 -13.919263 -2.8809183 16711746
5.025775 -9.6049452 1.1860403 16711746
2.7532444 -6.8108482 -2.8980117 16711746
6.530776 -9.9758081 -0.28070787 16711746
3.532028 -4.725069 -2.0844297 16711746
4.1611214 -4.5690637 -1.8966554 16711746
0.038148142 -2.247797 -0.34322712 16711746
-6.6121554 -4.9361877 1.3068863 16711746
-3.0944002 -5.7941513 -2.308774 16711746
-6.6683006 -10.831612 -4.8972964 16711746
-5.9573994 -9.4112825 -4.5829725 16711746
-4.5541959 -13.97085 -5.3058343 16711746
-3.508286 -4.4310303 -1.3497823 16711746
-4.7808461 -5.3752537 -1.8042835 16711746
-2.2356029 -2.8245327 -1.0952028 16711746
1.9782166 -3.7629318 -1.2425977 16711746
10.368211 -27.46949 -10.069935 16711746
2.3011427 -10.920394 -2.0395005 16711746
-4.4774594 -4.6465793 -0.61245495 16711746
-6.5610752 -5.4090433 -0.7072767 16711746
-0.39446443 -3.5320632 -0.69598943 16711746
-6.1494818 -6.2225866 -1.103295 16711746
-5.2005086 -5.3163071 -1.1732354 16711746
-2.3312039 -4.0038414 -1.030857 16711746
1.5580248 -3.6720715 2.0969939 16711746
4.5447226 -10.321453 2.1576324 16711746
5.7082505 -11.940983 4.2716899 16711746
6.1383572 -10.446953 0.30423975 16711746
-2.9497595 -5.6766658 -1.7901938 16711746
-0.33312124 -6.7212477 -2.7390506 16711746
7.57724 -19.713167 -0.91646141 16711746
4.5730243 -10.21797 1.8488117 16711746
1.4538159 -2.7161698 0.39092991 16711746
6.043612 -21.487154 -2.0936759 16711746
-5.108223 -7.2621627 -3.0392196 16711746
7.3888783 -9.425107 -0.2858189 16711746
6.4253173 -8.7067995 -0.30063587 16711746
-0.66259235 -5.6761856 -0.92812532 16711746
3.4302661 -9.3185921 -3.1179423 16711746
5.2781649 -10.126654 1.2503715 16711746
-4.5430789 -5.5611854 -1.701678 16711746
-6.5918536 -5.7817817 -0.73350382 16711746
-4.4210458 -4.5769572 -0.7087087 16711746
-8.2069225 -6.1356616 -1.1807243 16711746
-0.68993837 -2.2407303 -0.71722335 16711746
-3.3243849 -7.7447085 -2.9140048 16711746
-8.9831686 -18.074865 -7.1833754 16711746
-2.0721667 -8.6526117 -3.1247904 16711746
-0.34656933 -3.7376657 -0.77296102 16711746
-2.6871591 -11.609566 -2.6077487 16711746
-2.4562781 -4.0869961 -1.8283504 16711746
-6.933979 -7.3407683 -1.9990921 16711746
0.18254605 -8.6688004 -2.6089973 16711746
1.037968 -3.9805899 -0.84072846 16711746
4.9158564 -10.671392 -2.5818431 16711746
-5.6253552 -6.2610331 -2.0975125 16711746
-1.7811774 -2.5684671 -0.89709622 16711746
1.2384384 -3.7227938 -0.87085581 16711746
2.7067239 -5.3500562 -0.31295675 16711746
5.1768365 -13.069004 -0.84939814 16711746
5.280334 -11.656506 -1.199894 16711746
-5.2957416 -4.2674699 -1.0321423 16711746
-0.20492816 -4.7326918 -1.2411283 16711746
2.3695402 -5.4446869 -1.9762335 16711746
-9.4314642 -10.278669 2.3996582 16711746
3.2962039 -5.6146731 1.0066434 16711746
9.8897381 -17.198206 4.3838329 16711746
7.5017357 -16.160503 3.2941463 16711746
1.1300335 -3.6159678 1.3307325 16711746
-3.9984238 -7.3535872 -2.3137436 16711746
-2.3104446 -3.7045228 -1.196216 16711746
0.34338322 -6.2481136 -1.2260071 16711746
3.8887913 -4.6501484 -1.2781808 16711746
-0.43386588 -6.8551292 -2.0729795 16711746
4.7950182 -7.8977518 -1.8449287 16711746
-2.7699754 -5.6817079 -2.3278863 16711746
-3.8539088 -4.9989324 -1.1486777 16711746
5.9860868 -7.6936364 -3.2388806 16711746
-2.1386218 -7.1140718 -1.5705132 16711746
-6.3162198 -6.9066272 -0.24165063 16711746
0.28474581 -4.1236033 -1.2366979 16711746
6.6873264 -9.6721506 1.1880524 16711746
10.523694 -15.90377 1.3948903 16711746
1.1431921 -16.490978 3.4271226 16711746
0.52353507 -2.6016855 0.5205366 16711746
5.0358429 -11.662346 2.447504 16711746
0.56112099 -3.2726746 0.17908144 16711746
2.1108451 -12.470947 -3.5116265 16711746
-6.5674419 -4.7527261 -0.059702571 16711746
1.4630102 -4.8179402 -1.5231941 16711746
1.3224669 -6.6760235 -0.093011379 16711746
7.7465024 -11.779193 -0.48245466 16711746
-0.4920193 -6.3844409 -0.71039659 16711746
-6.4253521 -6.4496002 -1.4217931 16711746
-2.2047238 -4.2359142 -1.8145666 16711746
-9.3925123 -7.1831441 -1.6853145 16711746
4.5370698 -12.651268 -3.6058145 16711746
-0.51646924 -3.9353366 -0.73358423 16711746
-3.4902313 -5.1497121 -1.8482946 16711746
-2.2659953 -2.8341973 -1.1113373 16711746
1.7883021 -3.5908592 0.33654174 16711746
-6.7605844 -5.2736607 -0.7299515 16711746
-7.4477935 -5.4850187 -1.0689652 16711746
2.1669788 -4.8934736 -0.50841594 16711746
-6.3583302 -8.7844954 -2.7234266 16711746
-3.4268529 -4.3331652 -1.3197075 16711746
3.5549471 -24.384386 -5.2312136 16711746
-7.4512544 -6.8047719 2.4628153 16711746
-6.6917052 -7.1472397 -1.9761006 16711746
4.1438022 -14.44021 -2.348474 16711746
4.4602666 -7.5033774 0.23531099 16711746
7.6922698 -23.46521 -0.49944827 16711746
11.923905 -21.174387 -8.6220312 16711746
5.1128154 -7.8091154 1.0425256 16711746
2.5335634 -3.8213031 1.0355502 16711746
10.844362 -18.479103 6.7971301 16711746
-5.6231961 -5.2872376 -0.91694742 16711746
-2.3788164 -11.238638 -2.9751515 16711746
0.20109096 -5.8529558 0.18858984 16711746
-5.1907682 -4.8168321 -1.5008057 16711746
6.971097 -16.758713 3.525696 16711746
2.4024749 -5.1336436 0.9648484 16711746
-7.8018341 -8.4851313 -2.5239732 16711746
-4.7239742 -5.1354284 -1.6386023 16711746
7.8607445 -19.326895 -2.7288408 16711746
9.0308027 -25.448303 -3.7100735 16711746
7.2111583 -20.749487 -6.2599063 16711746
-25.007879 -20.086187 -4.7164812 16711746
-1.4945302 -8.6226578 -1.1244506 16711746
3.2139816 -13.390322 -4.4743099 16711746
-5.3788991 -4.2028112 -0.28248405 16711746
-0.42949897 -2.2588947 0.27725166 16711746
2.1690781 -4.2247934 -0.13096088 16711746
1.1352695 -5.8477583 -1.0728322 16711746
4.1581302 -6.5698857 0.42358553 16711746
0.53299463 -10.546839 -3.6735647 16711746
1.0244064 -11.981733 1.1612298 16711746
2.1710327 -5.4076772 -0.96392822 16711746
-5.7551994 -5.741219 -1.2640802 16711746
3.6467047 -5.2704883 -0.23831631 16711746
2.4302459 -3.2463131 -0.030905176 16711746
-6.3519974 -8.9195948 -3.7369032 16711746
-4.5497756 -5.4071116 -1.8914661 16711746
-2.0142107 -2.8152354 -0.97665954 16711746
-4.5673981 -6.1599941 -2.4666457 16711746
-4.9912724 -11.178338 -4.2452555 16711746
9.6571245 -21.180588 -1.5750185 16711746
4.6880565 -5.5767422 -2.357089 16711746
6.7553921 -9.8486156 1.2214379 16711746
1.317812 -7.8799276 -1.5927603 16711746
2.0376916 -7.11415 -1.5021957 16711746
-5.8265157 -5.7554741 -1.5741235 16711746
2.8720677 -10.972019 -3.3385189 16711746
-14.793347 -10.731042 -2.1038599 16711746
2.1081533 -3.8963356 -1.3639277 16711746
-0.25395048 -4.781321 -0.42083296 16711746
-4.4166989 -4.6083689 -0.6984598 16711746
-7.1763263 -5.9268637 -0.7646119 16711746
-0.51319325 -6.9926443 -2.1317644 16711746
-1.9967958 -2.4871645 -1.1134455 16711746
1.0912447 -3.1622047 0.21215852 16711746
3.6380806 -4.6940203 -1.644346 16711746
6.5950394 -5.4820638 -1.3343947 16711746
0.27195567 -8.2869177 -1.6646256 16711746
-7.6103883 -9.6031284 -3.4424925 16711746
-4.4919972 -10.201062 -3.8477676 16711746
0.17627738 -8.2376604 -2.4873989 16711746
-8.9505081 -9.0201797 -2.162883 16711746
5.5544462 -13.903916 -1.1090151 16711746
-8.616477 -10.019794 -3.1349177 16711746
-13.192344 -11.614458 -3.1976781 16711746
14.585831 -28.370625 -1.6982356 16711746
10.374079 -23.469667 -1.7581573 16711746
9.3967409 -22.287529 4.2774892 16711746
13.045737 -19.820553 1.6297404 16711746
3.8770287 -8.7812614 -2.8716109 16711746
-0.49104133 -2.4479988 0.28057599 16711746
1.1293677 -3.492625 -1.0200084 16711746
-2.833025 -4.3565173 -1.4355849 16711746
-4.3355594 -4.9417357 1.4330126 16711746
-5.9009347 -8.2626743 -3.4428661 16711746
-1.5362839 -2.4613891 -1.0078228 16711746
0.56000847 -2.9535189 0.16199061 16711746
4.1699882 -10.451688 -0.47232512 16711746
-9.5446882 -9.8783331 -2.620311 16711746
11.415012 -16.555792 -1.4360179 16711746
12.134828 -20.29179 -1.5279363 16711746
-6.7280874 -5.9993606 -1.3930182 16711746
2.4104104 -10.58605 -2.3548508 16711746
1.667363 -3.1774769 -0.86371428 16711746
-3.7508435 -12.593459 -3.6603181 16711746
-2.1437571 -4.3192539 -1.3585608 16711746
-6.2872109 -7.7814245 -1.8648007 16711746
4.1619868 -6.8308306 0.21151899 16711746
0.72085291 -3.5076253 -0.26609477 16711746
3.4463742 -14.650924 5.1726885 16711746
9.5992117 -18.054634 3.1937485 16711746
11.115909 -17.463129 4.8660207 16711746
3.2603078 -5.1381903 1.3747929 16711746
0.55684495 -2.9108031 0.60506219 16711746
-8.5139332 -9.0863228 -0.33255684 16711746
-1.2928076 -2.6759219 -0.12379097 16711746
5.9246173 -12.456083 4.4280548 16711746
2.1918912 -5.3523312 1.5840739 16711746
6.8597922 -10.715082 1.7553326 16711746
-8.0239477 -6.6248231 -0.97507042 16711746
5.0856414 -11.669903 3.6322241 16711746
3.6283159 -7.3692803 0.71627533 16711746
5.070652 -7.5689354 -0.54798555 16711746
-6.3414683 -5.7190504 -1.604118 16711746
3.8492029 -5.6835833 -2.6916053 16711746
-2.2763522 -5.6251745 -2.1057639 16711746
1.7356092 -3.6978259 -1.489352 16711746
-6.281558 -6.3697329 2.3435709 16711746
-6.1766243 -10.154168 -4.4865012 16711746
4.8817172 -8.1773968 2.0823686 16711746
7.9478822 -18.904135 5.8452263 16711746
4.4327407 -9.1775942 1.9183176 16711746
0.59130883 -4.4387674 0.51495367 16711746
8.5032139 -13.086709 3.6407709 16711746
-8.4756804 -6.1957755 -0.31702623 16711746
-7.2762542 -7.8308382 -1.9609208 16711746
5.4565353 -12.446467 1.5892242 16711746
-6.5795345 -5.9131579 -1.6635246 16711746
-4.5866914 -4.8072562 -1.5056698 16711746
-4.5969763 -6.3034396 -2.2913058 16711746
-3.3144333 -5.7296185 -2.3881655 16711746
-6.1349254 -4.9840264 1.7269641 16711746
2.9200428 -6.1963835 -0.74322349 16711746
1.047984 -10.206061 1.52897 16711746
7.0512395 -10.362411 0.91948301 16711746
-8.3640318 -6.5510645 -0.60357922 16711746
-0.14455821 -3.5539341 -0.58209258 16711746
-5.4810553 -7.0650048 3.4161029 16711746
-7.5312734 -6.6794829 -1.5897455 16711746
-2.206459 -3.6258464 -0.38980848 16711746
10.371929 -8.6921711 -2.2000759 16711746
1.785859 -3.3251827 -1.2270839 16711746
3.4952109 -6.6918945 3.5046568 16711746
6.6471486 -12.279113 2.2023549 16711746
-3.5400865 -15.644701 -4.1238623 16711746
3.0341384 -6.2249136 1.2828131 16711746
4.7368207 -10.715805 1.9208601 16711746
-6.89151 -5.8584704 2.8022337 16711746
4.4885912 -12.652307 0.054350354 16711746
-8.0371943 -8.0150909 1.9120725 16711746
3.1072197 -8.8812847 -2.7038555 16711746
1.2226707 -5.9459472 -0.085211918 16711746
-2.625807 -8.3743725 -3.5269616 16711746
-6.1367717 -5.276165 -1.1830112 16711746
-5.662303 -4.482101 -0.50556719 16711746
-5.2171965 -6.9572778 -2.7520888 16711746
-1.8399719 -2.5188599 -1.0621105 16711746
2.0423481 -6.3910913 -1.2233218 16711746
