# .PCD v0.7 - Point Cloud Data file format
VERSION 0.7
FIELDS x y z rgb
SIZE 4 4 4 4
TYPE F F F F
COUNT 1 1 1 1
WIDTH 1168
HEIGHT 1
VIEWPOINT 0 0 0 1 0 0 0
POINTS 1168
DATA ascii
-1.0247704 -5.461144 37.001965 16711746
0.75240898 -5.7523155 38.967987 16711746
-1.1430532 -5.6443834 37.720806 16711746
0.20852856 -5.5412788 37.685883 16711746
-1.065827 -5.646821 37.764854 16711746
-0.78007537 -5.5024824 37.870972 16711746
1.7455933 -5.7220311 38.703522 16711746
1.223547 -5.7919102 39.232407 16711746
-0.7761023 -5.5547581 37.342491 16711746
-1.3478023 -5.6273694 37.800621 16711746
-0.37983161 -5.4525928 37.602089 16711746
-0.54904974 -5.5010881 37.773773 16711746
1.81059 -5.9491162 39.497631 16711746
0.33019626 -5.5368361 37.511044 16711746
5.537921 -6.5805011 44.531956 16711746
-0.63014156 -5.4021788 37.254189 16711746
0.0077392953 -5.8304267 39.167839 16711746
-1.2979898 -6.008163 39.686398 16711746
-0.46598729 -5.5965981 38.365974 16711746
1.3706131 -5.6922979 38.687737 16711746
-0.43928334 -5.5978975 38.386185 16711746
-3.3362978 -5.4953561 37.471378 16711746
0.009985731 -5.526649 37.667095 16711746
-2.932673 -6.166091 40.844669 16711746
-1.0167422 -5.6846051 38.203518 16711746
-4.6331992 -10.082984 43.296371 16711746
-1.4874917 -6.2070661 40.89806 16711746
-1.2881696 -5.6390624 38.078186 16711746
1.4914904 -5.5938077 38.07098 16711746
-0.63785791 -5.6394444 38.596039 16711746
-0.085809641 -5.6652613 38.488628 16711746
11.613548 -12.747239 53.543697 16711746
-0.25730544 -8.5180683 41.963272 16711746
-3.2921584 -10.734888 52.59026 16711746
-3.1752679 -6.1606593 41.199131 16711746
1.1993712 -5.7091131 38.753216 16711746
-0.25776422 -5.4837146 37.614513 16711746
-0.89034837 -5.7682238 38.584614 16711746
-0.28723827 -5.4172306 37.384617 16711746
-0.77380461 -5.5340691 37.491215 16711746
-0.71492773 -5.5865216 37.779709 16711746
-2.1067541 -5.6017628 37.716675 16711746
1.1074347 -5.5710626 38.205219 16711746
1.1607141 -5.8695631 39.958187 16711746
-0.94993627 -5.4694819 37.048431 16711746
1.3235182 -5.5932984 38.173065 16711746
1.0048454 -5.5999684 38.202457 16711746
0.81916231 -5.5460405 37.955429 16711746
1.3145518 -5.5996375 38.149021 16711746
0.0053039892 -5.7962747 38.987305 16711746
-0.038890716 -5.5849862 38.00219 16711746
-0.36739251 -5.4670606 37.568104 16711746
-1.1503108 -5.7963324 37.457355 16711746
0.58921623 -5.6896157 38.53693 16711746
-0.94172841 -5.4667792 37.023746 16711746
2.4446318 -5.6924334 39.221855 16711746
0.21017766 -5.5456867 37.670467 16711746
0.16539486 -5.4906859 37.466259 16711746
0.23811534 -5.6560102 38.254837 16711746
0.027443802 -5.5698895 37.838833 16711746
-0.23042534 -5.5624428 38.155312 16711746
-0.28549936 -5.6118569 38.325298 16711746
0.012599171 -5.5290461 37.942257 16711746
-0.96825182 -5.5931578 37.276318 16711746
0.48734769 -5.5471172 37.825954 16711746
0.64656252 -5.5267224 37.702179 16711746
-0.35415941 -5.5245605 37.990631 16711746
-1.5147839 -5.845078 38.866714 16711746
1.0420538 -5.7538238 38.81506 16711746
0.19956137 -5.7091169 38.456951 16711746
-0.17062223 -5.4911003 37.635288 16711746
-0.22279243 -5.5806031 38.109959 16711746
0.88754749 -5.5645127 38.110943 16711746
0.9882496 -6.0326114 40.129383 16711746
-0.23618272 -5.5055065 37.918983 16711746
-1.0225298 -5.5018835 37.13361 16711746
-0.98125118 -5.69525 38.315861 16711746
0.46687892 -5.7371268 38.761314 16711746
0.75652999 -5.7141328 38.714596 16711746
4.1820383 -6.184289 41.790031 16711746
3.1994412 -5.899313 40.314938 16711746
-0.20074485 -5.5061612 37.884758 16711746
-0.62391663 -5.5570793 37.984821 16711746
-1.465413 -5.7670064 38.363693 16711746
-0.20515087 -5.5995636 38.063091 16711746
-0.1319443 -5.5637741 38.031242 16711746
0.12502539 -5.5922923 38.031471 16711746
-0.50284827 -5.8638158 39.618065 16711746
1.1847261 -5.5365467 37.926868 16711746
1.2610404 -5.8987684 39.698677 16711746
-0.089302033 -5.506043 37.656754 16711746
5.7027903 -10.885644 46.39603 16711746
0.25867099 -5.5765319 37.856564 16711746
0.0012566961 -5.9249973 39.699009 16711746
-1.0248412 -5.9088039 39.443398 16711746
-0.66226858 -6.2343421 41.514187 16711746
1.5030533 -10.098917 46.594311 16711746
0.16321723 -7.2907081 39.451252 16711746
-7.4621673 -12.136431 63.910645 16711746
-1.3533897 -5.6821866 38.045918 16711746
0.27519056 -5.7364068 38.657001 16711746
-0.76178032 -5.6216121 37.797703 16711746
-0.91575462 -5.6344256 37.825481 16711746
-0.21379206 -5.4817171 37.925503 16711746
0.036678441 -5.6558332 38.209385 16711746
0.21276034 -5.7360048 38.645008 16711746
-1.6050813 -5.7214971 38.176388 16711746
0.6738072 -5.720202 38.813858 16711746
-0.20351301 -5.613606 38.325775 16711746
-0.19663364 -5.5143862 37.863144 16711746
-0.88425618 -5.7202153 38.399307 16711746
0.27153125 -5.5611501 37.889217 16711746
0.29041195 -5.6114497 38.078037 16711746
0.52025509 -5.5440111 37.839085 16711746
-0.082916074 -5.6667213 38.471569 16711746
-3.6934988 -6.1212225 40.497406 16711746
-1.283622 -5.7285771 38.392265 16711746
1.4455216 -5.9694786 40.027645 16711746
0.6253041 -5.8221016 39.132351 16711746
-0.6358667 -5.4879761 37.853786 16711746
-1.2544106 -5.7400122 38.349537 16711746
0.24345008 -5.6207728 37.928261 16711746
0.2211258 -5.6827712 38.272064 16711746
-0.87828606 -5.8559461 39.095173 16711746
-0.84730011 -5.5783367 37.651363 16711746
1.7417856 -5.8608384 39.701759 16711746
-0.43787095 -5.6543841 38.245556 16711746
1.4784592 -5.6433959 38.116573 16711746
1.9500213 -5.8407021 39.415173 16711746
-0.14412814 -5.562572 38.018772 16711746
0.93405992 -5.7551651 39.034252 16711746
4.588254 -6.1815891 42.350208 16711746
-0.70639884 -5.5919037 37.764019 16711746
-0.63039869 -5.5605845 38.107018 16711746
-0.63954306 -5.5543461 38.126434 16711746
1.6355588 -5.6819754 38.420029 16711746
1.1444992 -5.5477605 38.065037 16711746
-0.98971128 -5.6942096 38.158279 16711746
1.0774159 -5.6739259 38.611309 16711746
0.70642859 -5.7337852 38.594269 16711746
0.62696785 -5.5841637 38.53587 16711746
1.298085 -5.6342678 38.466244 16711746
0.66802686 -5.9749489 40.061405 16711746
0.53710061 -5.6085029 38.249538 16711746
-0.80233431 -5.6945477 38.342335 16711746
0.273765 -5.7609959 38.720776 16711746
0.67932254 -5.9745483 40.064842 16711746
0.22499835 -9.6043224 44.438572 16711746
1.1266185 -5.9601016 39.849472 16711746
-1.8698733 -11.893576 49.788067 16711746
0.087956518 -11.669448 50.856174 16711746
3.9270916 -6.5105925 42.893375 16711746
-2.1132238 -9.7162895 56.137947 16711746
-0.57808942 -10.155383 47.74091 16711746
-0.21475787 -5.7204819 38.791264 16711746
-0.97336501 -6.08637 40.245865 16711746
0.74520659 -5.7550988 38.935654 16711746
1.2113891 -5.7973757 39.186413 16711746
-1.4331142 -5.6665545 38.081623 16711746
1.3035905 -5.6275115 38.487427 16711746
0.52691483 -5.6081915 38.23682 16711746
0.32639009 -5.6922412 38.449993 16711746
-0.43557182 -5.6401644 38.221111 16711746
0.27716127 -5.7506819 38.739841 16711746
0.9506225 -5.6721625 38.624966 16711746
0.006533843 -5.6532817 38.21064 16711746
-1.142815 -5.6225634 37.759254 16711746
-1.3995782 -5.6811872 38.057213 16711746
1.8464202 -5.8591022 39.280701 16711746
-0.8578397 -5.9665527 39.481129 16711746
-1.1562096 -5.7552075 38.290321 16711746
-1.0835629 -6.2115469 41.259602 16711746
-0.60978603 -5.6738658 38.727993 16711746
1.3329821 -5.5152569 38.008266 16711746
0.215303 -5.8847928 39.437927 16711746
0.014065722 -5.8341742 39.13858 16711746
0.058547392 -5.892756 39.583523 16711746
0.41691563 -5.7193227 38.59412 16711746
1.0811285 -5.6710243 38.614475 16711746
-1.4697297 -5.7171144 38.169403 16711746
-0.73519301 -5.787466 39.430695 16711746
-1.1925815 -5.7031722 38.102081 16711746
0.60171628 -5.8375063 39.053928 16711746
1.0556281 -5.806251 39.048756 16711746
-0.81790608 -5.6780286 38.690117 16711746
1.1331835 -5.613338 38.235477 16711746
-0.61398947 -5.7363634 38.992081 16711746
-0.63442069 -5.8924356 39.046555 16711746
-0.83361942 -5.9560761 40.060097 16711746
-0.034514975 -6.1727419 41.197723 16711746
-1.9244218 -10.599982 49.31456 16711746
0.5314194 -5.5476761 37.959694 16711746
-0.67481208 -5.8218875 39.435017 16711746
-1.2342502 -5.627233 37.835487 16711746
3.6680958 -5.9821839 40.33955 16711746
-1.3256538 -5.7032022 37.969669 16711746
-1.0576285 -5.5858812 37.552105 16711746
0.61094213 -5.8237038 39.10574 16711746
1.4971818 -5.5847101 38.089703 16711746
-1.4428686 -5.7828498 38.618958 16711746
-0.65616661 -5.5729556 38.190338 16711746
0.67002547 -5.7231483 38.776634 16711746
-1.9797935 -6.1765714 40.934994 16711746
-0.87872529 -5.6534781 38.006924 16711746
1.3027804 -5.6017156 38.140209 16711746
0.13856257 -5.5785027 37.966793 16711746
1.3405852 -5.6639485 38.668648 16711746
1.6256634 -5.67942 38.012329 16711746
-0.35793436 -5.6472268 38.530121 16711746
-0.54108256 -5.5197735 38.028217 16711746
-0.64439321 -5.8165698 39.528904 16711746
-3.8511229 -6.0870099 40.520668 16711746
-1.3797029 -5.8407288 38.845634 16711746
-1.6142786 -6.0194511 39.505978 16711746
-0.7160005 -5.657445 38.636063 16711746
0.26232198 -5.6689544 38.447811 16711746
1.4610651 -5.7900195 39.006424 16711746
-0.18539511 -5.8630037 39.414669 16711746
1.1458037 -5.5711017 38.419212 16711746
-1.3627523 -6.0201244 39.716194 16711746
0.76303852 -5.6815872 38.690327 16711746
1.4616814 -5.7869029 39.012901 16711746
-1.1953732 -6.047348 38.676918 16711746
0.31234482 -5.8130984 38.990135 16711746
0.51752156 -5.6597033 38.348248 16711746
-0.78995955 -5.6609364 37.899223 16711746
1.4790463 -5.7728724 39.066444 16711746
0.30243963 -5.7889228 39.098434 16711746
-0.77513397 -5.7376013 38.408794 16711746
1.5580156 -5.7428846 38.769299 16711746
0.67966318 -5.8102632 39.181477 16711746
0.20657057 -5.905344 39.34272 16711746
1.0594846 -5.7429595 38.854149 16711746
-0.9709453 -5.7858014 38.872662 16711746
0.5256415 -5.6562672 38.420845 16711746
-0.20684387 -5.6295557 38.312958 16711746
-1.511759 -5.8372893 38.949871 16711746
-3.718302 -5.8844357 39.565445 16711746
0.2577481 -5.6546221 38.136425 16711746
-1.1943263 -5.6696987 37.735527 16711746
0.14027509 -5.6110663 38.116253 16711746
4.2380524 -5.9307427 40.636139 16711746
1.1932585 -5.8138146 39.144192 16711746
0.52086854 -5.6167078 38.180397 16711746
0.28239644 -6.0666237 40.366844 16711746
1.0532894 -5.6476774 38.300377 16711746
1.1077226 -5.5719743 38.190845 16711746
0.48480454 -5.6290102 38.275497 16711746
0.90768152 -5.6130576 38.388397 16711746
-0.51641613 -5.6353045 38.904247 16711746
0.21933371 -5.6583471 38.346081 16711746
-0.71951193 -5.7859144 39.309338 16711746
-0.25342557 -6.4002099 43.307526 16711746
-0.97725952 -6.3301134 41.900539 16711746
-0.024880141 -6.8259554 45.257454 16711746
-1.0631087 -5.5475769 38.273193 16711746
-0.16498052 -6.3722858 42.476822 16711746
1.8067483 -6.0191283 39.97855 16711746
-0.31582016 -5.7724357 39.044964 16711746
-1.3035388 -6.0078354 39.684875 16711746
0.32671118 -5.6955914 38.440228 16711746
-0.15218222 -5.6742773 38.426655 16711746
-0.91760433 -6.3435082 41.694633 16711746
0.91655552 -5.933754 40.008476 16711746
-0.88053 -5.6674705 38.077923 16711746
-0.89750689 -5.7632794 38.59433 16711746
0.40955651 -5.7227254 38.622383 16711746
-1.3799723 -5.8438549 38.833916 16711746
0.27930275 -5.7350535 38.6842 16711746
1.4770004 -6.1850071 41.357174 16711746
-1.1317014 -6.1066546 40.168793 16711746
-0.091145843 -5.6535196 38.509747 16711746
-0.41604885 -5.8118472 39.342594 16711746
-0.44122085 -5.7217741 38.957916 16711746
3.2946191 -5.8947349 40.426559 16711746
1.0924221 -6.0718865 40.361542 16711746
0.27551705 -5.7281489 38.692226 16711746
-0.64007896 -5.6166029 38.480366 16711746
0.44414759 -5.678019 38.50655 16711746
-0.64939708 -5.6078134 38.502415 16711746
-1.5068957 -5.7543631 38.4142 16711746
-1.057673 -5.6959591 38.283562 16711746
2.3362198 -5.7199678 39.366615 16711746
1.0961366 -5.9004149 39.591412 16711746
-0.97149533 -5.6926255 38.282391 16711746
-1.1963814 -5.7961745 38.573162 16711746
0.42029089 -5.6939282 38.66634 16711746
-0.53619677 -5.6132922 38.672375 16711746
-1.2033598 -6.0337 38.687313 16711746
1.871461 -6.0714426 40.416241 16711746
-0.345669 -5.7303433 39.000362 16711746
4.7312131 -6.161685 42.468895 16711746
0.53335303 -5.8137527 39.198147 16711746
-0.00082722318 -6.0880241 40.620052 16711746
1.100687 -5.6778011 38.689835 16711746
-0.61519438 -5.8969064 39.877083 16711746
0.21422446 -5.8821115 39.444851 16711746
-1.917659 -6.4451799 42.426445 16711746
-0.71217817 -5.8802848 39.743107 16711746
-0.43829456 -5.8419962 39.47834 16711746
1.3161986 -5.6137795 38.488884 16711746
3.2235005 -5.7618251 39.913334 16711746
0.31837991 -5.808238 39.020111 16711746
-0.78173226 -5.752461 38.634857 16711746
1.4514722 -5.7903013 39.001858 16711746
0.22144593 -5.8546658 39.681568 16711746
0.80518585 -5.8160338 39.171856 16711746
0.62135834 -6.0739517 40.463509 16711746
0.063777201 -5.6898289 38.460831 16711746
-0.30467972 -5.9956269 40.404438 16711746
-0.28464383 -6.2603583 41.618652 16711746
2.5074069 -9.3713722 44.87151 16711746
0.078044973 -6.2959194 42.418205 16711746
0.16449492 -10.100124 46.586334 16711746
-0.018453665 -6.8298917 45.298927 16711746
-0.44055027 -5.8104877 39.208118 16711746
-0.38015956 -5.6469951 38.626839 16711746
0.47073099 -5.8723874 39.536755 16711746
0.90897435 -5.7193832 38.749432 16711746
-0.81472456 -5.77458 38.796249 16711746
-1.2070889 -5.9007206 39.2798 16711746
-0.28870478 -6.0027442 40.286392 16711746
0.762384 -5.6805964 38.694386 16711746
0.66644669 -5.7281713 38.762058 16711746
1.1315622 -5.5832229 38.399384 16711746
-1.8444554 -6.1798677 40.655479 16711746
-0.97601163 -6.1019621 40.267174 16711746
-1.5629609 -6.2490821 40.529953 16711746
1.2138649 -5.6902313 38.808643 16711746
-0.29227772 -5.7818074 38.957565 16711746
-0.88471007 -5.7702298 38.568035 16711746
0.79773647 -5.8618398 40.424854 16711746
-1.0816736 -5.7462115 38.33672 16711746
-0.94279724 -5.4924312 39.583015 16711746
-1.0366561 -5.911458 39.441162 16711746
0.062161312 -5.8941178 39.553108 16711746
-1.3669598 -5.6290159 38.243679 16711746
0.56868201 -5.7657022 38.78162 16711746
-0.59102148 -5.7192287 39.233101 16711746
-0.67950994 -5.9466639 39.423088 16711746
-0.83024365 -5.6998758 38.363819 16711746
-0.52013648 -6.3046651 42.370159 16711746
0.2595714 -5.755022 38.734123 16711746
-1.3955866 -6.5545254 41.121044 16711746
0.45883605 -5.645133 38.611599 16711746
-4.843739 -3.8900852 43.368179 16711746
-1.0572132 -5.9135571 39.454231 16711746
-1.5427864 -5.769454 38.277046 16711746
0.29287899 -6.1971302 41.331001 16711746
-0.71435827 -6.2422338 41.753181 16711746
-0.4171977 -6.5510364 43.666779 16711746
-0.70209581 -6.233252 41.694279 16711746
1.8386952 -5.860518 39.799454 16711746
0.24009092 -5.7399144 38.747581 16711746
-0.11873996 -5.7537184 38.85059 16711746
0.23771369 -5.7451487 38.729656 16711746
-0.31570792 -5.7810531 39.010509 16711746
0.73081487 -5.9413133 39.834694 16711746
0.56324774 -5.9281588 39.837322 16711746
-0.66564626 -5.6029739 38.503361 16711746
1.1031922 -5.8956347 39.773273 16711746
-0.52649707 -5.6370587 38.694435 16711746
-1.0501987 -5.8672338 39.230751 16711746
-1.4506044 -5.8853602 39.23748 16711746
0.088784717 -5.7966075 39.033985 16711746
0.33030656 -5.8085203 39.04113 16711746
2.2442818 -5.7459731 39.039917 16711746
-2.6705706 -5.8064065 39.238182 16711746
-0.5845955 -5.8535595 39.637314 16711746
1.1762894 -5.7414403 38.846966 16711746
-0.21185942 -5.7355199 38.869171 16711746
0.38509071 -5.9405427 39.881752 16711746
0.4767929 -5.739397 38.720398 16711746
1.3616558 -5.7911301 39.04047 16711746
-0.4305504 -5.849791 39.431904 16711746
-1.4988704 -5.733006 38.415356 16711746
1.141284 -5.8849783 39.820984 16711746
-0.68115121 -5.6520543 38.533653 16711746
-0.84292287 -5.6805911 38.352551 16711746
0.47453669 -5.8653302 39.562508 16711746
-1.0699134 -5.7001672 38.448811 16711746
-0.010427404 -5.8649225 39.673248 16711746
1.7792971 -5.8197675 39.430424 16711746
-0.59311509 -5.8501992 39.657673 16711746
0.078385137 -5.7958312 39.027107 16711746
0.64425802 -5.7801809 38.980221 16711746
-1.3297855 -5.7053885 38.427776 16711746
-1.4153725 -5.7709327 38.34391 16711746
1.5274831 -5.7333045 38.862617 16711746
-0.40906748 -5.8617506 39.425407 16711746
-0.18845999 -5.7686849 38.777931 16711746
2.2112076 -6.0398941 41.16209 16711746
1.105445 -6.0747051 40.368214 16711746
-1.0608915 -5.88275 39.804672 16711746
1.3384949 -5.8140454 39.388206 16711746
1.0006297 -5.942306 39.095848 16711746
0.50585747 -5.7517276 39.108612 16711746
0.065819152 -5.8056917 38.982201 16711746
0.29438213 -5.7994857 39.125427 16711746
-0.38392475 -5.7129164 38.911106 16711746
-0.61578542 -5.8959846 39.889091 16711746
-1.0598447 -6.0473375 40.139668 16711746
-0.88851142 -5.7646174 38.592228 16711746
-0.31005058 -6.0420914 40.465061 16711746
-0.96457636 -5.8944135 39.272869 16711746
0.35054696 -5.8228092 39.140583 16711746
0.84539139 -5.7648449 38.97842 16711746
0.47957715 -5.7973976 38.953064 16711746
1.2121866 -5.8731055 39.894573 16711746
-0.44075233 -5.6981826 38.810047 16711746
0.48525253 -5.7936311 38.956154 16711746
0.66732854 -6.1027303 40.876686 16711746
-0.81428391 -5.772656 38.525681 16711746
1.6109833 -6.0106621 40.177624 16711746
1.2061979 -5.8223481 39.29121 16711746
-0.96800393 -6.0949922 40.231548 16711746
-1.176495 -6.0147986 40.092022 16711746
-0.25297216 -5.9235702 39.858837 16711746
-0.20504203 -6.2891312 42.106808 16711746
1.5473403 -6.6846256 42.901543 16711746
-1.3683771 -6.31321 39.978012 16711746
-0.13086233 -5.7349753 38.626011 16711746
-3.0577707 -6.1582217 41.038147 16711746
-0.12717617 -5.9037261 39.767799 16711746
-0.88770032 -5.7646527 38.595863 16711746
-3.0923345 -6.1734509 41.047562 16711746
-0.60221797 -5.7374849 39.187042 16711746
-0.62595272 -5.7644744 39.253658 16711746
-0.85344988 -5.7196293 38.49971 16711746
0.27402171 -5.8298368 39.221905 16711746
-1.3572757 -6.0256462 39.708275 16711746
-0.62794292 -5.658195 38.760555 16711746
-1.1577045 -5.8698235 39.219799 16711746
0.99328321 -5.7606544 39.041607 16711746
2.2957523 -5.9196482 40.475868 16711746
-0.62685657 -5.7252717 39.020809 16711746
-0.72371638 -5.7867751 39.291397 16711746
1.194399 -5.9268942 39.552971 16711746
1.4446299 -6.2331791 40.304996 16711746
-1.0846117 -5.8364515 38.920269 16711746
-1.8784081 -5.8357177 38.768444 16711746
1.5317703 -6.212976 40.588104 16711746
-0.14594121 -5.8734813 39.290531 16711746
-0.93684614 -5.9444146 39.656269 16711746
0.69324619 -5.9793854 40.091805 16711746
0.12786674 -6.0083599 40.117031 16711746
-1.5472201 -5.9140115 39.424324 16711746
0.22158942 -5.9132757 39.340088 16711746
-1.5743878 -5.8439965 38.71748 16711746
-0.4290404 -5.7427402 39.160007 16711746
-0.41924942 -5.8887901 39.246342 16711746
0.88170964 -6.2966933 41.811947 16711746
-1.0964787 -6.0473118 39.96114 16711746
-1.3816321 -6.5496807 41.138596 16711746
0.87527925 -6.2915339 41.825779 16711746
-0.62306106 -5.7308402 39.012177 16711746
-1.8644537 -5.8134394 38.429035 16711746
-0.25328743 -5.9071074 39.882351 16711746
-1.2866112 -6.0854802 38.833405 16711746
0.362436 -6.0156074 39.565796 16711746
-0.91007733 -5.7882404 38.459873 16711746
-0.81591827 -5.96489 40.012367 16711746
0.87067318 -6.1247149 40.95628 16711746
-0.045369897 -6.0379996 40.430378 16711746
-0.67920882 -5.7442522 38.954308 16711746
0.61461663 -5.829349 39.092838 16711746
-0.74916703 -5.7712283 39.238895 16711746
1.0862397 -6.0740924 40.32198 16711746
-0.8469404 -5.8079047 38.938171 16711746
-2.582304 -11.471272 49.030121 16711746
-0.046559244 -5.7780714 38.993206 16711746
6.0606723 -11.263438 49.014591 16711746
15.411273 -14.720305 59.25433 16711746
-0.80706871 -11.036863 48.286953 16711746
2.0185115 -11.64077 50.347443 16711746
-0.8807233 -6.1384072 41.040035 16711746
-28.807365 -13.987422 69.226639 16711746
-15.664731 -10.598482 54.933357 16711746
-1.9425886 -11.264787 49.347237 16711746
-0.0039033222 -5.9770637 39.922771 16711746
-0.19055855 -5.8037734 39.226566 16711746
-0.79202354 -5.7932248 39.458584 16711746
-0.19400996 -5.8068314 39.168396 16711746
1.1502893 -5.7866817 39.562237 16711746
-1.074971 -5.7629437 38.859684 16711746
-0.96646756 -6.1192722 40.57893 16711746
-0.26758596 -6.0008469 40.265476 16711746
1.6419131 -6.0387764 40.383129 16711746
-0.25728205 -5.7428203 38.992546 16711746
1.377966 -6.016644 40.187687 16711746
-1.0774804 -5.9153609 39.425537 16711746
-1.0835081 -6.0055046 39.76458 16711746
0.029075796 -6.0384598 40.316219 16711746
-0.54241735 -5.7485256 39.185661 16711746
-1.5937701 -5.8959141 39.485481 16711746
0.85552889 -5.8233614 39.557003 16711746
-0.57060635 -5.7781596 39.327503 16711746
-0.73498511 -5.8921099 40.568348 16711746
-0.84301853 -5.8179007 39.013874 16711746
-1.4667678 -5.9996233 39.699409 16711746
0.71189463 -5.8887596 39.596966 16711746
0.33949241 -6.095479 40.826206 16711746
-0.70472491 -5.815599 39.618423 16711746
-1.4182851 -5.9201889 39.469875 16711746
0.32722315 -6.1101913 40.738216 16711746
-0.28134128 -5.9964952 40.291714 16711746
-0.31836137 -5.7185364 39.099014 16711746
-0.19971511 -5.7976327 39.256107 16711746
0.35650879 -5.8109813 39.196552 16711746
0.52104568 -6.1758103 41.240314 16711746
-0.98682308 -5.892168 39.621799 16711746
0.81485683 -6.319551 42.042534 16711746
-0.081096187 -6.0365939 40.283077 16711746
-0.77771473 -5.881268 39.700462 16711746
1.3553371 -6.1848164 41.409256 16711746
-0.89515263 -5.8578787 39.20068 16711746
-0.74845982 -5.783155 39.615189 16711746
-0.57603872 -5.8591208 39.615078 16711746
-1.1489691 -5.7802377 38.718971 16711746
-1.374413 -6.0527244 39.83659 16711746
-0.95306897 -6.1727343 40.977249 16711746
-1.0024564 -6.3066683 41.854717 16711746
-2.6323316 -11.234036 51.446907 16711746
1.5167023 -11.352947 51.254593 16711746
-1.0025203 -12.420286 53.79134 16711746
1.5884433 -11.698257 53.451946 16711746
1.0586226 -5.9401703 39.87561 16711746
-0.24848126 -6.0522022 40.525791 16711746
-1.3614128 -6.1951637 40.702274 16711746
0.88177896 -6.0075378 40.391205 16711746
0.55297995 -5.8536506 39.526352 16711746
-0.82554042 -6.0632305 40.605984 16711746
-0.1556634 -5.8948636 39.752148 16711746
-0.73645657 -6.0059915 40.263527 16711746
-0.66034085 -5.8034916 39.544819 16711746
-1.6825397 -5.9028711 39.363594 16711746
-0.16940896 -5.834589 39.449799 16711746
0.79722208 -5.8080406 39.707634 16711746
-0.4717432 -5.7908292 39.280285 16711746
-0.10492168 -5.8428588 39.377728 16711746
0.19438964 -5.8954024 39.601288 16711746
-0.10659271 -5.7965331 39.238708 16711746
-0.57821095 -6.0201201 40.450058 16711746
-0.28964624 -5.9030962 39.820213 16711746
-0.10580551 -5.8404946 39.389465 16711746
-1.668865 -5.9656768 39.47517 16711746
0.89568013 -5.8728418 39.803139 16711746
0.03916011 -5.8577194 39.42981 16711746
-0.97935665 -6.0496092 40.106663 16711746
-1.0968663 -6.0108232 39.760929 16711746
-0.38812384 -5.8583488 39.563091 16711746
3.9841101 -6.2653871 42.805744 16711746
-1.6117251 -5.882308 39.509953 16711746
0.045567553 -5.8819637 39.581581 16711746
0.42464271 -5.8800821 39.607639 16711746
0.38563341 -5.9733877 39.940639 16711746
1.650423 -6.1586366 40.407974 16711746
0.87050378 -6.1217752 40.912495 16711746
0.57191914 -5.9544816 39.866791 16711746
1.1144859 -5.9450159 40.033684 16711746
0.38092628 -5.9935751 39.832153 16711746
0.64638144 -5.8604317 39.629536 16711746
1.2023262 -6.0355582 40.218586 16711746
-0.2987574 -6.0324569 40.487679 16711746
0.79810542 -6.0587525 40.881565 16711746
0.15131205 -5.9602871 39.960251 16711746
0.46142802 -5.9830656 40.06694 16711746
-0.94413501 -6.3794756 42.435101 16711746
0.87980044 -5.997664 41.08007 16711746
0.38448015 -6.0200644 40.303135 16711746
0.12319965 -5.8077369 39.131126 16711746
-1.7885859 -6.3278937 41.259228 16711746
-0.42049196 -5.8139997 39.338291 16711746
0.21771394 -5.880455 39.463974 16711746
0.21956554 -5.8843856 39.452076 16711746
-0.81531221 -5.8715696 39.660851 16711746
-0.79450762 -6.0607429 40.802826 16711746
-1.256864 -6.042953 39.985931 16711746
-5.0481873 -12.660555 60.381638 16711746
1.3631955 -12.354028 52.354546 16711746
-4.5704846 -11.114413 60.651081 16711746
-7.671464 -11.532941 51.046398 16711746
-6.8094764 -11.004429 49.58342 16711746
-1.1521194 -5.9290128 39.560741 16711746
0.73384893 -5.9871788 40.138031 16711746
0.25472081 -5.9014187 39.665466 16711746
0.27629206 -5.9632821 39.945778 16711746
0.68758893 -6.1298094 41.083023 16711746
0.46810779 -5.9757938 40.088615 16711746
1.7229298 -5.9838481 40.128799 16711746
0.69429499 -5.9549236 40.111645 16711746
-0.12817666 -5.9011707 39.784031 16711746
1.2451651 -6.1301713 41.02528 16711746
2.3419473 -5.9944177 41.028759 16711746
1.3865578 -6.5502391 41.881138 16711746
-1.2988961 -5.9575171 39.581963 16711746
-0.6138621 -5.7746744 39.538147 16711746
-0.64450353 -5.8146515 39.518005 16711746
-1.0404682 -5.899178 39.464684 16711746
-0.46672764 -5.9719901 40.094776 16711746
1.0200301 -5.8262429 39.688831 16711746
1.2645037 -5.8676906 39.94017 16711746
-1.7086868 -5.9596467 39.50082 16711746
1.1941559 -5.8134255 39.553925 16711746
-0.23185919 -5.9160347 39.829163 16711746
-3.0090261 -6.1738238 40.944595 16711746
0.75197709 -5.9211388 39.925293 16711746
-0.66948324 -6.0219493 40.528286 16711746
0.77061868 -6.0729313 40.743507 16711746
-0.74758333 -5.9581518 40.084339 16711746
-0.19243945 -6.2873101 42.039165 16711746
-0.29757196 -6.0413938 40.45787 16711746
4.3257604 -6.3794599 42.927826 16711746
1.1213403 -5.9381824 40.043907 16711746
0.074169956 -6.1239953 40.698162 16711746
0.39689633 -5.8704243 39.715622 16711746
0.5444417 -6.1600003 41.383171 16711746
-0.75153834 -6.0978236 40.545605 16711746
1.4758775 -5.9991226 40.067551 16711746
-0.87756234 -6.1500778 40.995861 16711746
-0.98818713 -6.3661137 42.590302 16711746
1.214029 -5.9341788 39.913261 16711746
-0.35455272 -5.9358249 39.972141 16711746
-1.2560885 -6.2875214 41.447693 16711746
-0.15728271 -5.88802 39.779747 16711746
-4.4094763 -11.42572 48.596184 16711746
-0.98692709 -6.2279963 41.139462 16711746
-0.19439159 -6.2323928 41.649616 16711746
-0.83212745 -5.8766413 39.859627 16711746
-7.2877202 -11.670222 50.453213 16711746
1.1287049 -6.0635133 40.428513 16711746
-1.0079132 -6.5362329 43.448586 16711746
-0.97358173 -6.2393088 41.483212 16711746
0.47030297 -6.2449145 41.728119 16711746
-0.73037654 -5.8737803 39.755623 16711746
-0.65454102 -6.2404881 41.469547 16711746
-3.7390831 -6.1358242 40.589844 16711746
0.76451719 -5.9226823 39.958561 16711746
-0.60733116 -5.8358102 39.691139 16711746
-0.0085235713 -5.9407053 39.77877 16711746
-0.83019239 -5.9624834 40.071545 16711746
-1.948283 -6.3165202 41.522919 16711746
-1.3780158 -6.5621271 41.102985 16711746
-0.01590123 -5.9228868 39.837158 16711746
-3.6003594 -6.1256738 40.631329 16711746
-2.9531024 -6.1724486 40.925762 16711746
0.15460044 -5.9241161 39.907917 16711746
-0.018300422 -5.9291854 39.821598 16711746
-0.61998308 -5.8990116 39.870567 16711746
-3.0098433 -6.1673088 40.956207 16711746
1.7346606 -6.1251464 40.504723 16711746
1.2711335 -5.8738918 39.761173 16711746
-0.46784475 -6.0235209 40.463997 16711746
-0.038005903 -6.0885167 40.214619 16711746
-1.3053763 -5.9587545 39.582291 16711746
1.09763 -5.9110069 39.65374 16711746
-0.99792057 -5.82656 39.413952 16711746
-0.60875624 -5.9442892 40.182404 16711746
1.1261339 -5.8928494 39.700382 16711746
0.74715233 -6.2223153 41.600643 16711746
-1.2083184 -6.3234839 41.405704 16711746
-0.58819717 -5.79702 39.504265 16711746
-0.82410216 -5.7798538 39.504471 16711746
1.6371714 -5.8993783 39.896919 16711746
0.95176589 -6.1065941 40.892429 16711746
0.27188605 -5.9711294 39.926815 16711746
-0.38659337 -5.8432679 39.591988 16711746
1.3206489 -5.9677649 40.091854 16711746
-0.75335824 -6.0771213 40.747437 16711746
-0.59227377 -5.8494873 39.655968 16711746
1.6104376 -5.9134598 39.869404 16711746
-0.030960109 -5.938252 39.806808 16711746
0.0068486272 -6.0920901 40.613483 16711746
-0.61846423 -5.9693618 40.106041 16711746
-1.0462885 -6.0007887 41.408184 16711746
0.064851373 -6.113317 40.779522 16711746
0.40113738 -5.9480901 40.047112 16711746
-1.1264315 -5.968576 39.760971 16711746
1.2259989 -6.1006775 40.786091 16711746
0.37438998 -6.1746497 41.437222 16711746
1.7183543 -10.441708 47.143562 16711746
1.3036189 -5.8662133 39.778946 16711746
0.90022331 -6.211349 41.515278 16711746
-1.0915271 -6.0454774 39.959343 16711746
-0.70328808 -5.8815541 39.737541 16711746
-0.91997516 -5.9426131 39.65321 16711746
0.22737364 -9.5370007 44.561821 16711746
-1.0777059 -6.2223043 41.624725 16711746
-9.8465729 -10.820997 44.845596 16711746
-7.2513881 -13.639336 56.67717 16711746
-0.01467821 -6.8336773 45.120625 16711746
-0.59356999 -6.0072865 40.497478 16711746
0.88341874 -5.8403029 39.754501 16711746
0.7324127 -5.8528643 39.698925 16711746
1.1474757 -5.8189039 39.647793 16711746
-0.78627151 -6.121017 40.829723 16711746
1.5355521 -6.0189848 40.326527 16711746
-1.1028354 -6.2504888 41.179485 16711746
-2.9251087 -6.1730137 40.958271 16711746
0.72685152 -5.8553243 39.693905 16711746
-1.1574936 -6.1944866 40.85577 16711746
0.53837639 -5.8872457 39.699707 16711746
-0.61151904 -5.7754765 39.543911 16711746
1.4861555 -6.1878672 41.358185 16711746
0.38049096 -6.0229821 40.285385 16711746
-3.8907969 -6.3711586 42.163189 16711746
0.14427993 -5.9574685 39.812099 16711746
0.29107374 -6.0047584 40.375935 16711746
-0.84262276 -5.8606143 39.686798 16711746
0.1488626 -5.9193516 39.921814 16711746
0.76455384 -6.079638 40.615448 16711746
-0.31974494 -5.9467669 40.058739 16711746
1.6497285 -6.23071 41.503922 16711746
0.37224314 -5.950655 40.030506 16711746
-0.24510746 -5.8825846 39.920673 16711746
0.15120518 -5.9276962 39.875069 16711746
0.2939668 -6.0299897 40.276291 16711746
-1.1520003 -5.9719334 39.704784 16711746
0.1353386 -5.9534054 40.310825 16711746
1.3037227 -6.5877934 41.694107 16711746
-1.3965758 -6.5685749 41.146118 16711746
-0.68820679 -6.2329574 41.498085 16711746
-0.16351299 -5.8848076 39.770096 16711746
0.28580537 -6.0158114 40.35133 16711746
-1.2103134 -6.1709781 40.827171 16711746
-2.9687567 -6.1700506 40.977505 16711746
1.4391521 -5.9095054 39.999649 16711746
-0.19154537 -6.2408133 41.495682 16711746
0.93822581 -6.1129303 40.87706 16711746
0.35371917 -6.1817632 41.376366 16711746
0.094627015 -6.1808524 41.709248 16711746
1.1981115 -6.0399604 40.210228 16711746
0.94988745 -5.9258661 40.25758 16711746
0.38891497 -6.0779915 40.516735 16711746
0.85390174 -5.9905949 40.027977 16711746
-0.58234072 -6.014051 40.467079 16711746
1.7843736 -5.9873571 40.247669 16711746
0.02944573 -6.0911121 40.603973 16711746
-0.85777146 -5.8456469 39.665821 16711746
-0.62298453 -6.180264 41.298107 16711746
-0.2653034 -6.3372359 42.24157 16711746
0.46828398 -6.247467 41.720974 16711746
-0.036406118 -6.0464401 40.3862 16711746
-0.52574843 -6.3150768 42.326302 16711746
1.4614282 -5.9627609 40.102917 16711746
-1.2299346 -9.0038652 44.328243 16711746
-0.76510191 -6.0562649 40.54715 16711746
-0.27406517 -5.9352226 39.961941 16711746
0.96440512 -6.2820549 41.966068 16711746
-4.2880635 -6.7776599 44.769115 16711746
-0.41934067 -5.8973522 39.913471 16711746
1.8104328 -6.0871367 41.00235 16711746
0.76737761 -5.9170594 39.969177 16711746
-0.56512082 -6.1264358 41.123238 16711746
-0.81418628 -5.9478045 39.926109 16711746
-0.0015070591 -5.9634423 39.964268 16711746
0.037196249 -6.0296392 40.345421 16711746
-0.12157399 -6.1209884 40.803051 16711746
-1.0118086 -6.2805696 41.234295 16711746
1.2005194 -6.1965604 41.337193 16711746
-0.36304459 -5.9584231 40.103848 16711746
0.83864033 -5.9942226 40.472958 16711746
2.6937697 -6.0066772 41.060543 16711746
-0.83608109 -5.9207006 39.949932 16711746
-1.0866975 -5.870121 39.506248 16711746
1.0292501 -6.0646095 40.673859 16711746
-1.3248134 -6.1053114 40.148273 16711746
1.6450877 -5.9968843 40.265469 16711746
0.48388311 -6.1171827 40.87418 16711746
-1.1214838 -6.1052828 40.176361 16711746
-1.2553163 -6.1509895 40.866196 16711746
0.14271626 -5.9915824 40.179775 16711746
0.28518215 -6.0229454 40.283527 16711746
-0.98406082 -6.0271845 39.850651 16711746
-1.9423503 -6.0069509 39.87558 16711746
1.1442732 -6.2252727 41.506447 16711746
-0.49671459 -5.9911094 40.174152 16711746
-0.29365644 -6.0085011 40.676483 16711746
-0.96162426 -6.0991073 40.227772 16711746
1.0606173 -6.2273593 41.49485 16711746
-0.92590135 -5.9306517 39.656666 16711746
-0.78306603 -5.8814626 39.820839 16711746
-3.9230042 -6.286612 41.685596 16711746
-1.4267139 -6.0679355 39.953377 16711746
0.19261222 -5.9642096 39.997597 16711746
-0.14027022 -6.2176147 41.416851 16711746
0.81784701 -6.1782551 41.374771 16711746
-0.56855905 -6.0897641 40.812454 16711746
0.57177961 -5.9969954 40.199539 16711746
-1.2895736 -6.0110807 39.674286 16711746
4.0228233 -6.228601 42.064919 16711746
0.36845791 -6.1856542 41.347622 16711746
-0.36149651 -6.0899091 40.770195 16711746
-0.29377308 -5.9268837 40.070133 16711746
2.1037619 -6.6001115 43.60199 16711746
1.1383568 -6.0268607 40.364391 16711746
-1.2723991 -5.9768953 39.550751 16711746
-0.17974365 -5.9773817 40.009956 16711746
-1.2302889 -7.9608054 42.035786 16711746
-1.6092122 -6.3332515 41.300632 16711746
1.2200532 -6.0994945 40.787189 16711746
0.33250856 -6.0845075 40.866287 16711746
0.95173275 -6.1081829 40.893284 16711746
6.6901293 -11.758503 48.419353 16711746
-1.3459961 -6.0555315 39.80648 16711746
-0.060760643 -6.0370579 40.407246 16711746
0.07363946 -6.1123815 40.759563 16711746
1.3434982 -6.1956525 41.392548 16711746
-1.1660836 -6.2094502 41.197186 16711746
-0.90052342 -6.1769743 41.196373 16711746
1.3076037 -5.9704766 40.078384 16711746
-0.25586918 -6.0555768 40.47863 16711746
-1.2995749 -6.7404389 39.826084 16711746
-12.725021 -10.742809 51.456573 16711746
0.15331692 -10.253087 46.060505 16711746
1.1187888 -5.9410295 40.051788 16711746
-0.34168369 -8.6436262 45.595909 16711746
-0.035434924 -6.8429394 45.510593 16711746
-4.2448134 -6.4539719 42.486904 16711746
-0.95754188 -6.0633988 40.034573 16711746
-1.143038 -5.9786243 39.704639 16711746
-1.3252965 -5.9557161 39.53875 16711746
-1.0164275 -6.0260282 39.895912 16711746
0.53228617 -6.1085486 41.010376 16711746
0.37173456 -6.0842466 40.701962 16711746
-1.089146 -5.9976649 39.77034 16711746
-0.63563484 -6.0540395 40.644737 16711746
-0.75455201 -6.0947094 40.754246 16711746
-1.4470053 -6.2807961 41.11797 16711746
-0.65222967 -5.8778267 39.866055 16711746
-0.53975171 -5.9291935 40.018024 16711746
-0.958354 -6.1033006 40.417221 16711746
-0.55785149 -5.9126434 40.055946 16711746
-1.1228946 -6.0351915 39.98658 16711746
0.47763184 -5.9541411 40.132557 16711746
-0.1278726 -6.1087508 40.871582 16711746
-1.606177 -6.3390613 41.29406 16711746
-0.61825639 -5.9190769 39.971802 16711746
-1.178408 -5.9439292 39.524109 16711746
-1.3266244 -6.0351701 39.684307 16711746
0.43270847 -5.9935317 40.273594 16711746
-1.0182625 -6.2792721 41.270176 16711746
1.208189 -6.1050262 40.751785 16711746
0.017764069 -6.1030464 40.565079 16711746
0.94950044 -6.1002851 41.139442 16711746
-0.48665416 -6.006331 40.494858 16711746
-0.980708 -6.2486396 41.213654 16711746
-1.1458217 -5.9305034 39.556133 16711746
-1.1025685 -6.0442681 39.966034 16711746
-0.036496893 -6.1626158 41.099953 16711746
-1.2551963 -5.9786468 39.542034 16711746
0.79721719 -6.0363393 40.591801 16711746
-0.13396379 -5.9138861 39.882442 16711746
-0.97912335 -6.091043 40.034096 16711746
0.3362889 -6.0894742 40.848808 16711746
1.0704058 -5.9984708 40.250904 16711746
-0.83801174 -6.0298266 40.406666 16711746
0.58364183 -6.141953 41.521236 16711746
-0.67674035 -6.1726556 41.289883 16711746
-0.028107043 -6.1038198 40.137695 16711746
0.94725549 -6.6075077 44.042507 16711746
1.0769476 -6.3266883 41.864826 16711746
-0.89706475 -6.289155 41.513474 16711746
-1.10748 -5.9750104 39.67691 16711746
-0.35308376 -6.1819229 41.241226 16711746
-1.1319318 -6.0926509 40.200012 16711746
0.13025764 -6.0233998 40.220921 16711746
-1.4062325 -6.5661101 41.146568 16711746
0.066212021 -6.3373351 42.280407 16711746
0.27515835 -6.319335 42.248734 16711746
-4.2482462 -9.7384739 53.505539 16711746
-0.86330575 -11.244888 48.765179 16711746
1.603037 -10.280134 47.016418 16711746
1.2026107 -6.1956091 41.369606 16711746
-0.78805232 -6.0644717 40.418705 16711746
-0.52134043 -5.9989963 40.405758 16711746
-0.6335519 -6.1004567 40.837231 16711746
0.52505785 -5.986228 40.328106 16711746
-1.2552968 -6.2920642 41.218365 16711746
-0.17275007 -6.2706923 41.585983 16711746
0.11777852 -6.1633806 41.037609 16711746
-0.76340944 -6.1211681 40.805241 16711746
0.74204558 -6.2316446 41.588856 16711746
-1.0430812 -6.1883087 40.835373 16711746
0.68262261 -6.015326 40.514816 16711746
0.86618662 -6.0381713 40.786606 16711746
0.46774665 -6.2616878 41.672611 16711746
-0.38310438 -6.0493255 40.561104 16711746
0.036101095 -6.0166893 40.37429 16711746
-0.83066678 -6.0470891 40.481358 16711746
-1.3911659 -6.1794086 40.584686 16711746
0.28531781 -6.0094028 40.323002 16711746
0.34446064 -6.066452 40.811317 16711746
-1.4523971 -6.017386 39.880043 16711746
-0.40702456 -6.2319832 41.319004 16711746
-1.2274987 -6.4165406 41.633354 16711746
-0.16862665 -6.044848 40.401989 16711746
0.13648646 -6.0713086 40.399406 16711746
0.77270555 -6.5539927 43.115597 16711746
-0.2095388 -6.241446 41.511047 16711746
-0.87586004 -6.1824164 41.202335 16711746
0.90415102 -6.0932579 40.89846 16711746
-0.54357058 -5.9889989 40.346149 16711746
1.7757802 -6.1903911 41.388512 16711746
1.3364608 -6.0361748 40.106098 16711746
-0.34485006 -6.1014771 40.730553 16711746
-0.7573275 -6.3752751 42.421825 16711746
-0.17683446 -6.1816769 41.114468 16711746
-1.3261442 -6.1124053 40.151905 16711746
1.2349895 -5.9720826 40.542107 16711746
-0.82062596 -6.0648842 40.598366 16711746
-1.2695162 -6.2294316 40.959805 16711746
1.5017376 -6.1615791 41.247505 16711746
4.2419314 -6.6820936 45.908642 16711746
0.76858944 -6.395514 42.311234 16711746
0.13368903 -6.3793335 42.563793 16711746
-1.2418983 -6.1718659 40.811653 16711746
-0.44233063 -6.1197739 41.104069 16711746
-0.37299031 -6.3123088 41.966316 16711746
-0.046383061 -6.8427043 45.471043 16711746
-2.6595461 -11.459125 54.806602 16711746
-5.1287127 -9.3914518 56.361301 16711746
-3.0941267 -12.175678 56.77224 16711746
-1.0479298 -6.2594461 41.034554 16711746
0.80521369 -6.1853285 41.348839 16711746
0.5380621 -6.1888618 41.454735 16711746
-0.059260905 -6.0224247 40.252914 16711746
0.96465057 -6.1924391 41.275715 16711746
-1.0571843 -6.0942578 40.196529 16711746
0.87926942 -5.9671388 40.54089 16711746
-0.52244735 -5.9984999 40.406754 16711746
-2.4846191 -6.2622046 41.381474 16711746
0.54018211 -5.960536 40.376106 16711746
1.5111791 -6.1869578 41.370029 16711746
0.44878054 -6.1616397 41.216782 16711746
-1.2790414 -6.2474117 40.669838 16711746
0.9701196 -6.0095253 40.580688 16711746
0.40310416 -6.0794792 40.543892 16711746
-0.87773794 -6.1962891 41.11779 16711746
-1.3766901 -6.1767735 40.466309 16711746
-0.0013684566 -6.0910172 40.623852 16711746
1.2478241 -6.0838871 40.832985 16711746
-0.53300458 -5.9965978 40.327087 16711746
0.17467538 -6.0577927 40.463234 16711746
0.73158205 -6.2403822 41.472351 16711746
0.19107442 -6.5823989 39.986656 16711746
0.012665056 -6.136168 40.992516 16711746
0.85633171 -6.1331019 40.909164 16711746
-2.1979258 -6.3159275 41.328262 16711746
-3.6602006 -6.5783048 43.479008 16711746
-1.5510035 -6.1592307 40.415276 16711746
-0.38025668 -6.0448985 40.935356 16711746
0.49042037 -6.1126184 40.883461 16711746
1.2960577 -6.1384406 41.203976 16711746
-0.99934661 -6.149013 40.310791 16711746
0.79517084 -6.0442958 40.58239 16711746
-0.36647013 -6.0846615 40.786606 16711746
-0.11948129 -6.1411796 40.730171 16711746
-1.3993474 -6.7367454 42.779701 16711746
-1.120555 -5.9636865 39.690723 16711746
1.1924 -6.557632 43.577671 16711746
-1.1635716 -6.2682576 40.816833 16711746
-0.99562824 -6.0972948 41.326405 16711746
-0.87780339 -6.1256499 40.767239 16711746
1.5040464 -6.170074 41.403782 16711746
0.47681537 -6.2482314 41.701077 16711746
0.026576558 -6.3675771 42.057461 16711746
-2.2229445 -6.3655725 41.877834 16711746
-0.46104297 -6.2923441 41.761944 16711746
0.24983263 -6.2756 41.863918 16711746
-1.3324707 -6.2274141 40.830723 16711746
3.2460215 -6.5113297 44.003273 16711746
-0.98888022 -5.9949255 40.015259 16711746
1.20099 -6.0236535 40.541458 16711746
-0.82517296 -6.0449724 40.473499 16711746
-0.89144403 -6.1814675 41.164406 16711746
1.0785975 -6.0076799 40.275219 16711746
-0.026191985 -6.1634626 41.094994 16711746
1.276197 -6.1191235 41.162949 16711746
-0.74754137 -6.0161219 40.408287 16711746
-0.2959995 -6.032064 40.496597 16711746
-0.95175368 -6.0142517 39.971016 16711746
0.89167392 -6.0996208 40.866043 16711746
-0.14039028 -6.1323733 41.024925 16711746
1.110092 -6.0128293 40.771835 16711746
-1.9182124 -6.1901474 40.787529 16711746
0.74938375 -6.0911222 40.790188 16711746
1.5382608 -6.1709151 40.68866 16711746
-0.042048804 -6.0530877 40.536167 16711746
-1.3327796 -6.5536704 41.105247 16711746
1.6472523 -6.2473698 41.589134 16711746
-0.3783626 -6.1159711 40.787415 16711746
-1.3813726 -6.2858758 41.046684 16711746
0.4439202 -6.0255089 40.411629 16711746
0.36523148 -6.0975347 40.675209 16711746
-1.1680533 -6.0789046 39.930569 16711746
0.43505889 -6.1654997 41.200012 16711746
-1.414132 -6.1425552 40.342972 16711746
1.090672 -6.261148 41.361195 16711746
-0.29845139 -6.0602975 40.609425 16711746
-1.4465988 -6.1293793 40.371651 16711746
0.66828948 -6.0410967 40.725155 16711746
0.26958546 -6.332026 42.147263 16711746
-0.46117181 -6.2249002 41.376022 16711746
0.51147866 -6.0793519 40.733391 16711746
-0.90330678 -6.3997741 42.279232 16711746
-0.56471038 -6.0936871 40.786953 16711746
1.6262486 -7.2781234 42.83997 16711746
-2.5474489 -9.3720131 45.927605 16711746
-0.71990138 -6.0913229 40.951958 16711746
-15.46953 -11.719609 54.426666 16711746
-0.67347682 -6.3145642 41.783939 16711746
-3.7312605 -6.5589147 43.280331 16711746
0.4839212 -6.3523026 42.165302 16711746
1.7781672 -6.1837416 41.40271 16711746
0.73562741 -6.2685056 41.695808 16711746
0.058644027 -6.0594811 40.49345 16711746
-0.52670544 -6.0539918 40.547127 16711746
0.004190288 -6.1000934 40.596485 16711746
-0.79095906 -6.1272345 40.813011 16711746
3.3556964 -6.3219833 43.107788 16711746
0.74628317 -6.2283335 41.592354 16711746
0.70809424 -6.4166026 42.254639 16711746
-1.3814803 -6.2137012 40.816509 16711746
0.44166985 -6.4724946 42.66716 16711746
-0.49360579 -5.9938517 40.518307 16711746
-0.67856801 -6.126482 40.85907 16711746
-0.72034597 -6.0932183 40.809372 16711746
0.39753029 -6.5873551 44.076641 16711746
1.4309366 -6.7545929 42.888355 16711746
1.2417049 -6.3226657 41.67305 16711746
-0.54741579 -6.5587382 43.22451 16711746
0.97393799 -6.0014405 40.476791 16711746
-1.1881683 -6.1711907 40.829018 16711746
1.4461951 -6.2108359 41.267326 16711746
0.62109232 -6.0814919 40.773827 16711746
0.44284749 -6.1199598 40.905037 16711746
-0.29852363 -6.0342331 40.682732 16711746
0.09133862 -6.113708 40.732456 16711746
0.41879115 -6.055028 40.611645 16711746
1.5295932 -6.3038101 42.575699 16711746
-1.2309271 -6.3015018 41.186146 16711746
-0.80513954 -6.076314 40.575745 16711746
1.0680325 -6.0470624 40.700722 16711746
1.5252478 -6.1217084 40.973236 16711746
-1.1909682 -6.0725131 39.955097 16711746
-0.013341964 -6.1424479 40.867035 16711746
0.67488968 -6.1567621 41.010155 16711746
1.0970761 -6.0790153 40.401245 16711746
-0.64362842 -6.0909901 40.861244 16711746
0.69676501 -6.2346554 41.625515 16711746
-0.2803379 -6.0649037 40.764244 16711746
-0.8348673 -6.0816836 40.739323 16711746
-0.87612599 -6.1006689 40.885674 16711746
0.52576208 -6.0954742 40.8158 16711746
-1.1747516 -6.0308838 40.303699 16711746
-0.75858468 -5.9795074 40.368137 16711746
0.014783137 -6.3332329 40.550339 16711746
-1.7666427 -6.0982628 41.129547 16711746
-1.8097589 -6.3656197 40.271164 16711746
1.0615699 -6.6005435 43.019371 16711746
0.74144089 -6.2316976 41.580147 16711746
-0.72744101 -6.2746119 41.682304 16711746
-1.0177579 -5.973062 40.034985 16711746
0.059243333 -6.1264906 40.783501 16711746
-0.043269873 -6.210875 41.451023 16711746
-1.0358025 -6.2329054 40.986656 16711746
0.12932061 -6.2068396 41.387917 16711746
0.88920444 -6.3034158 41.785954 16711746
-0.78787374 -6.1569142 41.022251 16711746
0.86493534 -5.9695621 40.417278 16711746
0.058005668 -6.1261506 40.786522 16711746
0.37970227 -6.0878711 40.693333 16711746
1.0853486 -6.0380435 40.697857 16711746
-0.16046715 -6.3113718 41.790852 16711746
0.8263545 -6.6112657 43.359657 16711746
0.89794129 -6.032269 40.649998 16711746
-0.91263217 -6.2527304 41.405876 16711746
-0.92186832 -5.9818969 40.374031 16711746
0.90777814 -6.031394 40.669712 16711746
-1.3878185 -6.1907225 40.72366 16711746
-0.15256485 -6.2787089 41.31163 16711746
0.86568493 -6.1200147 40.933434 16711746
-0.75430411 -6.088644 40.742439 16711746
-0.88879937 -6.121727 40.795525 16711746
0.78059369 -6.0527725 40.640793 16711746
0.5133152 -6.0710802 40.764412 16711746
-0.22368456 -6.3419676 42.088371 16711746
-0.41424361 -6.3219585 42.106724 16711746
3.2775292 -6.3812747 43.115662 16711746
-0.81102812 -6.3525877 42.655239 16711746
-0.24260773 -6.4415021 42.687218 16711746
0.66679657 -6.0232005 40.558178 16711746
-0.42247483 -6.2891626 41.904812 16711746
-0.52328092 -6.5724049 43.161903 16711746
1.4482986 -6.6721525 44.504913 16711746
0.87029642 -6.3129058 41.764259 16711746
-0.030079203 -8.0804958 43.462833 16711746
-0.68214732 -10.30001 49.205383 16711746
0.81539267 -6.3497248 42.154613 16711746
0.056863174 -6.2316947 41.483749 16711746
0.52019799 -6.2728572 41.849815 16711746
1.2953755 -6.7388921 44.507374 16711746
6.3946309 -6.8729076 46.54752 16711746
2.8314097 -6.3352733 42.42865 16711746
-1.1212125 -6.0168571 40.191555 16711746
0.079388052 -6.3793998 41.913006 16711746
-1.106299 -6.1384258 40.525414 16711746
1.6372427 -6.5620379 43.570637 16711746
-1.2225139 -6.3122501 41.4431 16711746
1.3303227 -6.7181382 44.672409 16711746
-0.9204827 -6.188015 40.944122 16711746
-0.3733812 -6.3984089 42.487068 16711746
-0.10836038 -6.251802 41.643703 16711746
-1.2100528 -6.1699286 40.414028 16711746
-0.50424355 -6.2076607 41.457695 16711746
0.044745699 -6.140677 40.943329 16711746
0.87967789 -6.2028184 41.316963 16711746
0.04177111 -6.1916108 40.797985 16711746
-1.313953 -6.2880826 41.09148 16711746
1.0361373 -6.0515285 40.694164 16711746
-0.40110075 -6.1245332 41.42485 16711746
-1.93865 -6.2214141 41.020802 16711746
-0.9245432 -6.2020836 40.888302 16711746
0.085868701 -6.1847453 42.147381 16711746
0.8315838 -6.3243618 42.037201 16711746
-4.2677345 -6.647625 43.024269 16711746
-0.16083951 -6.1521368 40.956326 16711746
-0.90232581 -5.9959383 40.357647 16711746
-0.79706448 -6.2157025 41.328861 16711746
-0.23713097 -6.3501463 42.090725 16711746
-1.9924479 -6.9697146 45.491207 16711746
0.5051474 -6.4916849 43.652393 16711746
1.8838805 -7.0217857 47.30212 16711746
0.70918989 -6.1632495 41.284069 16711746
0.45872381 -6.1552234 41.220062 16711746
1.2574227 -6.1302123 40.931561 16711746
-1.0762652 -6.1208906 40.478531 16711746
-0.7817601 -6.2149401 41.314732 16711746
-0.15331008 -6.3053622 41.849232 16711746
-1.761389 -6.2254977 40.911236 16711746
0.36856234 -6.2137904 41.694202 16711746
-0.72290182 -6.1187901 40.700211 16711746
-0.73716372 -6.0515904 40.690266 16711746
-0.87342179 -6.2982826 41.473152 16711746
-0.74802309 -6.0462852 40.70261 16711746
0.36344281 -6.2118244 41.320507 16711746
-0.85210431 -6.0461016 40.628315 16711746
-3.7352421 -6.1717234 41.941059 16711746
-2.4867074 -6.2609243 41.38221 16711746
0.36804602 -6.2036881 41.346733 16711746
-0.884103 -6.0042276 40.340343 16711746
-0.81528628 -6.3296375 42.085926 16711746
-0.34336841 -6.2013435 41.33358 16711746
0.059200384 -6.3076982 41.530903 16711746
0.99068987 -6.1753874 41.131645 16711746
-1.1946826 -6.2230878 40.793423 16711746
2.5396001 -6.432425 42.240444 16711746
-0.15160586 -6.1280632 41.033085 16711746
-0.44394216 -6.2206287 41.387383 16711746
-1.2106262 -6.1383801 40.439194 16711746
-0.57005638 -6.1238561 41.085728 16711746
-1.1725848 -6.2660093 41.115974 16711746
-0.31101933 -6.3122249 41.942986 16711746
-0.50418055 -6.1539841 41.054264 16711746
-3.2482374 -6.2344694 41.617058 16711746
0.65153617 -6.1591725 41.273632 16711746
0.36389524 -6.2062416 41.348198 16711746
