# .PCD v0.7 - Point Cloud Data file format
VERSION 0.7
FIELDS x y z rgb
SIZE 4 4 4 4
TYPE F F F F
COUNT 1 1 1 1
WIDTH 1072
HEIGHT 1
VIEWPOINT 0 0 0 1 0 0 0
POINTS 1072
DATA ascii
1.6540364 -2.0028119 12.701743 2.3418063e-38
4.4177103 -1.4373808 10.936172 2.3418094e-38
6.0055966 -1.189106 10.133532 2.3418108e-38
4.0121818 -2.0170181 8.8257189 2.341813e-38
2.7945728 -1.6536783 11.403209 2.3418085e-38
0.84129578 -2.3584085 14.69632 2.342415e-38
5.5075612 -1.1293999 9.8931036 2.3418112e-38
7.4437451 -1.8843907 12.138504 2.3418073e-38
5.3914313 -1.2485484 10.278152 2.3418105e-38
5.7046199 -2.0848978 12.388744 2.3418068e-38
4.6936035 -3.0082726 16.582624 2.3432401e-38
4.3193369 -3.2086422 17.171358 2.3435271e-38
6.3119431 -1.8056494 12.060838 2.3418074e-38
5.4939327 -1.0463607 9.6669731 2.3418116e-38
1.6089603 -1.88905 12.799306 2.3418061e-38
5.4993377 -1.8828185 12.353909 2.3418068e-38
2.9678924 -1.1537237 9.9241495 2.3418112e-38
5.7459946 -2.1288331 12.375175 2.3418068e-38
2.8001342 -1.1036787 9.7474508 2.3418115e-38
6.4280987 -1.4374514 11.014915 2.3418092e-38
5.6782594 -0.97437203 9.4853201 2.3418119e-38
4.4278898 -1.4836246 11.100703 2.3418091e-38
3.0550954 -1.1417578 9.9381609 2.341811e-38
4.651341 -1.4130052 10.733329 2.3418098e-38
2.7940598 -1.5042709 11.176997 2.3418089e-38
4.2655272 -1.3843057 10.739941 2.3418096e-38
2.6493714 -1.567678 11.42944 2.3418085e-38
5.7275686 -3.3318648 11.482368 2.3418084e-38
5.7519979 -1.1832911 10.261673 2.3418105e-38
6.4542794 -0.94205379 9.0264425 2.3418127e-38
3.0004907 -1.2609346 10.309039 2.3418105e-38
2.8345704 -1.3424594 10.555926 2.3418101e-38
4.5253625 -1.304878 10.476212 2.3418102e-38
4.4043927 -3.0936124 16.845198 2.3433836e-38
5.6914926 -0.94901866 9.483654 2.3418119e-38
6.7569923 -1.2640606 10.254439 2.3418105e-38
5.3457546 -1.1113002 9.6169558 2.3418116e-38
5.6029949 -1.1996316 10.249687 2.3418106e-38
5.7038999 -1.0335488 9.8141966 2.3418113e-38
4.370851 -2.0186658 13.087622 2.3418056e-38
2.9897585 -2.0659277 11.615536 2.3418082e-38
4.8855553 -2.7452583 15.819605 2.3429172e-38
4.7371783 -1.182218 9.9404993 2.341811e-38
5.8246655 -1.4588385 10.992724 2.3418092e-38
4.2071776 -1.2674627 10.087337 2.3418109e-38
4.4014215 -1.7707125 12.24964 2.3418071e-38
3.8983228 -1.8508918 8.834219 2.341813e-38
3.9141047 -1.9083279 8.8075047 2.3418131e-38
4.8750439 -2.6247931 14.230032 2.3421998e-38
3.7912264 -1.797029 8.8375263 2.341813e-38
2.7432396 -2.0196428 11.587652 2.3418082e-38
6.329515 -1.1656845 9.4210234 2.341812e-38
7.2967792 -1.2066908 9.9758301 2.341811e-38
7.1351881 -1.491778 10.75756 2.3418096e-38
7.5470123 -2.5968075 14.71358 2.342415e-38
2.7224441 -1.1031059 9.6543646 2.3418116e-38
5.9124737 -3.9446335 11.985146 2.3418075e-38
6.8407564 -1.6085699 11.473427 2.3418084e-38
5.3891435 -1.2008963 10.039434 2.3418109e-38
6.0482368 -1.0933044 9.8210926 2.3418113e-38
6.5260282 -1.4341238 11.00388 2.3418092e-38
1.0126656 -2.6012042 15.443152 2.3427379e-38
4.8207321 -1.3936499 10.556862 2.3418101e-38
5.0083742 -1.4638374 10.7774 2.3418096e-38
3.8594429 -2.1325459 13.54308 2.3419128e-38
4.6084127 -1.1689198 9.7297258 2.3418115e-38
6.452806 -1.1730204 10.007051 2.341811e-38
4.6326785 -1.8052939 12.797498 2.3418061e-38
5.5280561 -1.3318911 10.553159 2.3418101e-38
4.6535292 -1.3362617 10.53199 2.3418101e-38
3.8832831 -1.8157488 8.8399878 2.341813e-38
5.4977612 -1.1459382 9.8686066 2.3418112e-38
7.115561 -1.591782 11.485854 2.3418084e-38
6.3488512 -1.5978379 11.675817 2.3418081e-38
4.5624547 -1.2105308 10.064161 2.3418109e-38
7.6570306 -1.8773353 11.964082 2.3418075e-38
6.885591 -1.3190863 10.422236 2.3418102e-38
2.1238902 -1.653702 11.941924 2.3418075e-38
2.3088565 -1.2346365 10.329729 2.3418105e-38
4.5246954 -1.246169 10.064708 2.3418109e-38
5.3524985 -1.4502423 10.864124 2.3418095e-38
8.0962124 -1.9421971 11.885497 2.3418077e-38
6.277492 -1.7801118 12.062821 2.3418074e-38
2.5299706 -1.5554876 11.34983 2.3418087e-38
5.8927674 -1.2917203 10.512613 2.3418101e-38
7.0299416 -1.5213385 11.137779 2.3418089e-38
5.7589388 -1.0942801 9.8895807 2.3418112e-38
-0.41953567 -3.3791738 17.881708 2.3438499e-38
3.7928677 -1.7937568 8.8337641 2.341813e-38
1.0420549 -1.9740299 13.092123 2.3418056e-38
5.0131574 -1.3633233 10.41542 2.3418102e-38
5.3485613 -1.5795435 11.289024 2.3418088e-38
8.5168781 -2.2469282 13.062019 2.3418056e-38
5.7362976 -1.2259219 10.353806 2.3418103e-38
7.3444209 -1.7502331 11.903103 2.3418077e-38
6.3206229 -1.1961765 10.262082 2.3418105e-38
5.2487831 -1.5945067 11.386227 2.3418085e-38
5.9931531 -1.1022391 9.9656458 2.341811e-38
8.2260199 -2.2617261 12.676561 2.3418063e-38
5.8325338 -1.7640322 11.956172 2.3418075e-38
1.879675 -1.6984588 12.285385 2.341807e-38
5.1846266 -1.2722781 10.343033 2.3418103e-38
7.0642033 -1.5017352 11.192233 2.3418089e-38
5.5892777 -1.2346554 10.170304 2.3418108e-38
6.5404859 -0.98180825 9.2735186 2.3418123e-38
8.3324242 -2.401541 12.623918 2.3418064e-38
6.3157215 -1.5569493 11.475251 2.3418084e-38
6.5715055 -1.7536707 11.660706 2.3418081e-38
7.9311275 -2.4804325 12.421679 2.3418067e-38
6.6021647 -1.9457308 12.548251 2.3418066e-38
3.938328 -1.8043573 8.8573122 2.341813e-38
5.8756423 -1.3352357 10.726005 2.3418098e-38
4.7811484 -1.3161016 10.403261 2.3418103e-38
5.0324883 -2.1743414 13.811903 2.3420204e-38
4.841022 -2.0705757 13.292497 2.3418053e-38
8.1337585 -2.577827 12.882127 2.341806e-38
6.1172414 -1.1182066 10.074686 2.3418109e-38
5.758801 -1.3909453 10.662594 2.3418098e-38
3.3614323 -3.0947158 16.927719 2.3434194e-38
5.8049502 -3.4193938 12.155059 2.3418073e-38
3.925595 -1.8124419 8.8619213 2.341813e-38
4.3828325 -3.5780125 18.581049 2.3441369e-38
7.6710067 -3.1708362 11.4445 2.3418085e-38
3.936054 -2.0728421 8.7840271 2.3418131e-38
9.117671 -3.7432218 18.54653 2.3441369e-38
6.3543057 -3.2310853 10.982303 2.3418092e-38
4.8404536 -1.5381153 10.520495 2.3418101e-38
4.1481943 -1.2695692 10.568627 2.3418101e-38
4.2041583 -1.6696196 11.333559 2.3418087e-38
4.1424704 -1.4315933 10.789594 2.3418096e-38
4.5900879 -1.3529799 10.242268 2.3418106e-38
4.2790241 -1.2174879 10.007986 2.341811e-38
6.8831062 -1.3361795 9.4772787 2.3418119e-38
2.5252736 -1.4029359 10.848404 2.3418095e-38
4.4199462 -1.5314629 11.200227 2.3418089e-38
2.5250874 -1.8341357 12.377478 2.3418068e-38
4.2495565 -1.4004833 10.794782 2.3418096e-38
4.1919503 -1.6661388 11.411841 2.3418085e-38
4.2101049 -1.2240784 10.465136 2.3418102e-38
2.2272844 -1.1897392 10.570451 2.3418101e-38
4.1702394 -1.5638083 10.715917 2.3418098e-38
4.3681445 -1.692049 10.684922 2.3418098e-38
3.9376636 -2.0647252 8.7957106 2.3418131e-38
4.4883208 -1.5264394 11.20496 2.3418089e-38
5.419333 -1.0408003 10.263684 2.3418105e-38
4.2168369 -1.284065 10.314498 2.3418105e-38
4.2388659 -1.4062411 10.765023 2.3418096e-38
5.4229283 -1.3368961 10.564523 2.3418101e-38
6.0317831 -1.1122662 9.7963953 2.3418113e-38
3.9827144 -1.1679791 9.8354177 2.3418113e-38
5.6784234 -1.4112217 10.868977 2.3418095e-38
6.1966381 -1.4068848 10.944252 2.3418094e-38
6.5522542 -1.3787482 10.910872 2.3418094e-38
5.3745313 -1.1890749 9.9593191 2.341811e-38
4.4558001 -1.5583403 11.301249 2.3418087e-38
4.4792562 -1.1891223 9.9820652 2.341811e-38
2.7830834 -1.3860096 10.603204 2.3418099e-38
5.2085195 -1.2124747 9.9377403 2.341811e-38
4.0742717 -1.3588527 10.637833 2.3418099e-38
4.1461692 -1.4300514 10.799816 2.3418096e-38
0.95280528 -1.5930882 12.702857 2.3418063e-38
4.2315025 -1.3167175 10.515871 2.3418101e-38
1.8258066 -1.5318127 11.735571 2.341808e-38
2.6811585 -1.6333951 11.49487 2.3418084e-38
5.7168918 -1.170851 9.9819069 2.341811e-38
2.1065848 -1.8432435 12.580132 2.3418064e-38
4.154861 -1.2870759 10.525381 2.3418101e-38
6.3638759 -1.1265054 9.5518618 2.3418117e-38
4.041337 -1.4243466 10.794238 2.3418096e-38
1.063749 -1.3224217 11.746905 2.341808e-38
5.5439262 -1.4766707 10.971418 2.3418094e-38
5.4191599 -1.4786547 11.002123 2.3418092e-38
6.5956101 -1.3229078 10.512993 2.3418101e-38
0.59686917 -2.4247043 15.158314 2.3426302e-38
4.3960972 -1.256831 10.279263 2.3418105e-38
6.0942059 -1.1137936 9.7354774 2.3418115e-38
4.3110337 -1.2258404 9.947485 2.341811e-38
5.6902466 -1.1034306 9.7950344 2.3418113e-38
4.8942971 -1.2059562 9.8335361 2.3418113e-38
4.269526 -1.3836371 10.746979 2.3418096e-38
1.3403431 -1.3220088 11.692396 2.3418081e-38
2.7217476 -1.6836476 11.841336 2.3418078e-38
2.4335387 -1.6540513 11.982129 2.3418075e-38
4.0032568 -1.4223056 10.875565 2.3418095e-38
2.2255015 -1.1834706 10.877398 2.3418095e-38
2.1239295 -1.216233 10.678619 2.3418098e-38
1.8202298 -1.2581276 10.911989 2.3418094e-38
3.8842313 -2.0651028 8.7567148 2.3418131e-38
5.7415395 -1.1308528 9.8772173 2.3418112e-38
5.4606194 -1.0874841 9.7825689 2.3418113e-38
5.1561108 -1.2213883 10.097718 2.3418108e-38
4.5534706 -1.4798861 11.162877 2.3418089e-38
4.4352083 -1.4708843 11.168909 2.3418089e-38
6.0441089 -1.0971332 9.69835 2.3418115e-38
0.9913125 -1.8149858 13.017202 2.3418057e-38
4.8516102 -2.0457845 12.949318 2.3418059e-38
4.6672711 -1.1680939 9.8183441 2.3418113e-38
6.5546384 -1.1927139 9.9583874 2.341811e-38
5.6526933 -1.3741606 10.728375 2.3418098e-38
0.64936787 -3.0933135 17.07288 2.3434553e-38
5.8294511 -1.7666047 11.966802 2.3418075e-38
5.1801124 -1.497333 11.056732 2.3418091e-38
4.5051365 -1.355678 10.585886 2.3418099e-38
2.1335998 -1.5812939 11.567054 2.3418082e-38
6.2486997 -1.1505163 9.6987314 2.3418115e-38
4.424634 -1.611092 11.39516 2.3418085e-38
1.8909414 -1.2903658 10.803616 2.3418096e-38
4.7288728 -1.132607 9.6862669 2.3418116e-38
5.3170891 -1.1923387 10.056228 2.3418109e-38
5.8721623 -0.97264874 9.5972767 2.3418117e-38
6.4348059 -1.2551154 10.446588 2.3418102e-38
3.9801126 -1.1547277 9.8592834 2.3418112e-38
6.3066864 -1.6093135 11.593042 2.3418082e-38
5.1018934 -1.3552877 10.444199 2.3418102e-38
-0.89522415 -2.1412997 15.179505 2.3426302e-38
1.3737577 -2.1240244 13.432102 2.341841e-38
3.8721781 -2.1429477 13.425693 2.341841e-38
5.1095967 -1.2122577 9.9593859 2.341811e-38
2.102016 -1.4459798 11.306222 2.3418087e-38
5.6469979 -1.5398792 11.162034 2.3418089e-38
5.1569352 -1.5171688 10.991557 2.3418092e-38
5.017118 -1.5759932 11.089601 2.3418091e-38
4.6841826 -1.3109192 10.494673 2.3418101e-38
1.6240839 -1.9844638 12.801317 2.3418061e-38
1.325983 -1.923484 12.931802 2.3418059e-38
6.828692 -1.3055354 10.626251 2.3418099e-38
2.0872061 -1.6125978 11.896127 2.3418077e-38
3.9720931 -2.1646235 8.8712053 2.341813e-38
2.420151 -1.6725562 11.982891 2.3418075e-38
4.3662157 -1.2710047 10.417415 2.3418102e-38
2.0808382 -1.2122506 10.69697 2.3418098e-38
6.142262 -1.0740049 9.5116596 2.3418119e-38
4.9192967 -3.7703774 18.748253 2.3442087e-38
7.131671 -1.9266614 12.470014 2.3418067e-38
6.9697757 -2.5718317 14.052505 2.342128e-38
5.4822259 -1.1831821 10.057298 2.3418109e-38
4.5434165 -1.3470722 10.576465 2.3418099e-38
2.0418675 -1.7106948 11.947682 2.3418075e-38
5.0184088 -1.4874939 11.04345 2.3418092e-38
4.5792727 -1.2685699 10.259515 2.3418105e-38
4.50559 -1.2910243 10.398492 2.3418103e-38
2.3511486 -1.2059805 9.8239851 2.3418113e-38
4.2295871 -1.951237 12.481672 2.3418067e-38
5.8908806 -1.2252489 10.450248 2.3418102e-38
6.8363304 -1.3419279 9.4224472 2.341812e-38
6.952971 -1.2547081 10.192528 2.3418106e-38
5.1918068 -1.6758569 11.507801 2.3418084e-38
5.2197795 -1.7115861 11.672236 2.3418081e-38
5.4988918 -1.2913245 10.535111 2.3418101e-38
4.3562117 -1.6579889 11.524321 2.3418084e-38
4.6975584 -1.3034573 10.336028 2.3418103e-38
5.5923839 -1.3933711 10.717024 2.3418098e-38
6.1696506 -1.2416105 10.738829 2.3418096e-38
1.9660937 -1.9003526 12.657821 2.3418064e-38
4.5099835 -1.7473974 12.186692 2.3418071e-38
6.9981179 -1.6131046 11.330585 2.3418087e-38
5.1066508 -1.355746 10.445724 2.3418102e-38
6.323576 -1.2344563 10.41162 2.3418103e-38
5.7461858 -1.6250863 11.436001 2.3418085e-38
6.1428175 -1.1379017 9.8133888 2.3418113e-38
5.2396345 -1.2220781 10.191189 2.3418106e-38
4.317697 -1.4533074 11.018589 2.3418092e-38
4.4173641 -1.7761252 12.442747 2.3418067e-38
5.6103258 -1.1819196 10.127769 2.3418108e-38
5.8246017 -1.4911025 11.044965 2.3418092e-38
6.6107168 -1.1478596 9.7685137 2.3418115e-38
5.8494415 -1.7423899 11.858824 2.3418077e-38
5.6743407 -1.4323449 10.920658 2.3418094e-38
3.9898875 -2.0650837 8.8017864 2.3418131e-38
6.8414097 -1.6558522 11.658725 2.3418081e-38
7.9578724 -2.0981481 12.411158 2.3418068e-38
5.7643657 -1.1314496 10.060501 2.3418109e-38
6.6536331 -1.2438478 10.300775 2.3418105e-38
4.3554983 -1.8611693 12.668365 2.3418063e-38
4.3355255 -1.3382252 10.685298 2.3418098e-38
5.7692313 -1.9220282 12.812984 2.3418061e-38
1.3945729 -1.5624846 12.280581 2.341807e-38
4.9686928 -1.4436558 10.733667 2.3418098e-38
6.9647832 -1.2886207 10.521268 2.3418101e-38
7.7800064 -2.2340229 13.429044 2.341841e-38
4.8738012 -1.3683037 10.536782 2.3418101e-38
4.564043 -1.8674506 13.322826 2.3418052e-38
6.4554195 -1.9830841 11.745566 2.341808e-38
7.1656804 -1.6990497 11.919169 2.3418077e-38
4.4434667 -2.4029434 14.301906 2.3422356e-38
3.3970842 -1.1142216 9.8680992 2.3418112e-38
4.6193142 -1.8759937 12.78694 2.3418061e-38
8.235384 -2.0175481 12.574447 2.3418066e-38
3.8671949 -2.138643 13.467033 2.3418769e-38
5.4788337 -1.1864424 10.048476 2.3418109e-38
5.8928318 -1.3625236 10.75615 2.3418096e-38
6.020833 -1.0331676 9.4961395 2.3418119e-38
6.5366426 -1.8553947 12.265097 2.341807e-38
6.8617449 -1.6436176 11.691059 2.3418081e-38
3.0798554 -3.5731781 16.396912 2.3431683e-38
4.9490042 -2.3615127 14.225744 2.3421998e-38
6.4576774 -1.1508961 10.154 2.3418108e-38
4.6036196 -1.7787902 12.114291 2.3418073e-38
8.2446785 -2.2213225 12.13886 2.3418073e-38
6.29705 -1.4142355 10.977996 2.3418092e-38
6.649652 -1.7748033 12.05921 2.3418074e-38
3.0060935 -2.9219971 16.288786 2.3431325e-38
8.3738956 -1.9619406 12.33326 2.341807e-38
4.9484434 -1.2286782 10.105039 2.3418108e-38
6.188138 -1.230842 10.432681 2.3418102e-38
6.4145546 -1.0145193 9.2113714 2.3418123e-38
8.2996283 -2.3213358 12.995811 2.3418057e-38
6.6241288 -1.1444095 9.7759581 2.3418113e-38
3.1334345 -1.1288044 9.8446903 2.3418113e-38
7.9213414 -1.8868487 12.313874 2.341807e-38
5.3389306 -1.374892 10.681604 2.3418098e-38
5.4956665 -1.8864383 12.334444 2.341807e-38
6.0252733 -1.2591145 10.55968 2.3418101e-38
1.3749133 -2.0235693 12.829659 2.341806e-38
6.095993 -1.1492599 10.191023 2.3418106e-38
6.532279 -1.4283595 11.014908 2.3418092e-38
4.6052351 -1.5746528 11.430177 2.3418085e-38
4.7570024 -1.5874022 11.563027 2.3418082e-38
7.5415654 -2.3685408 13.314662 2.3418052e-38
8.1156845 -2.2686384 12.531895 2.3418066e-38
6.3108253 -1.3709449 10.841763 2.3418095e-38
4.8514814 -1.3245724 10.44735 2.3418102e-38
4.6265593 -1.438489 10.839108 2.3418095e-38
5.6913452 -1.912498 12.386247 2.3418068e-38
3.5014946 -1.8645909 12.417276 2.3418068e-38
4.7773504 -1.748556 12.039688 2.3418074e-38
6.2236657 -1.3733358 10.884224 2.3418095e-38
7.6612206 -3.5427728 11.326928 2.3418087e-38
2.2664692 -1.1820083 10.106616 2.3418108e-38
6.6059184 -1.2332401 10.204629 2.3418106e-38
7.4702401 -3.2255034 12.401866 2.3418068e-38
5.1914206 -2.2963889 14.087288 2.342128e-38
7.7873392 -3.1163297 15.233724 2.3426661e-38
3.0166488 -3.2684605 11.335122 2.3418087e-38
3.9378703 -1.2798526 10.539421 2.3418101e-38
3.9284444 -1.6830118 11.96347 2.3418075e-38
6.354867 -2.1413569 12.968254 2.3418059e-38
8.6547585 -2.4102259 13.644167 2.3419486e-38
5.9057903 -3.0770025 12.598152 2.3418064e-38
4.0993276 -1.5260299 11.422903 2.3418085e-38
3.9305599 -1.2268496 10.284862 2.3418105e-38
4.3012929 -1.6031601 11.288754 2.3418088e-38
4.1082726 -1.3460582 10.643418 2.3418099e-38
3.9246438 -1.4421877 10.760249 2.3418096e-38
5.3707085 -1.0951697 9.7386217 2.3418115e-38
6.0715017 -1.1159185 9.775444 2.3418113e-38
4.9906602 -1.358781 10.358556 2.3418103e-38
6.6077819 -1.1711503 10.065545 2.3418109e-38
4.0798569 -1.5264713 11.233364 2.3418088e-38
6.9087029 -1.3089865 10.442262 2.3418102e-38
2.5304415 -1.4539595 11.126375 2.3418091e-38
4.6408234 -1.2752781 10.288539 2.3418105e-38
6.4079609 -1.00885 9.2357597 2.3418123e-38
3.7780428 -1.6054541 11.798561 2.3418078e-38
4.9720349 -1.2122734 9.6820755 2.3418116e-38
5.7081914 -1.3586164 10.692539 2.3418098e-38
4.5650883 -1.4249018 10.739956 2.3418096e-38
4.6535726 -1.2895769 10.351729 2.3418103e-38
4.0082221 -1.333618 10.506756 2.3418101e-38
4.1647611 -1.4048189 11.111183 2.3418091e-38
4.2412257 -1.553815 11.336618 2.3418087e-38
4.5846376 -1.4202709 11.214678 2.3418089e-38
1.3430527 -1.545125 12.591261 2.3418064e-38
4.21593 -1.2987285 10.26371 2.3418105e-38
4.699275 -1.4093883 10.716896 2.3418098e-38
4.0667591 -1.4798647 10.990608 2.3418092e-38
5.0773339 -1.1516107 10.368104 2.3418103e-38
4.2517118 -1.4222549 10.831894 2.3418095e-38
4.5893254 -1.2190056 10.095625 2.3418108e-38
2.4595025 -1.7122661 11.978191 2.3418075e-38
4.0247102 -1.3569975 10.807937 2.3418096e-38
5.3650217 -1.3998243 10.721143 2.3418098e-38
3.7067096 -1.6199746 11.557263 2.3418082e-38
4.3882623 -1.2688998 10.372666 2.3418103e-38
4.2485399 -1.2496129 10.457742 2.3418102e-38
2.4358151 -1.5017287 11.255447 2.3418088e-38
6.0429268 -1.0276064 9.4953394 2.3418119e-38
6.4034739 -1.3955054 10.930174 2.3418094e-38
5.5208931 -1.3462746 10.520331 2.3418101e-38
5.0701694 -1.5000219 11.013442 2.3418092e-38
5.0890155 -1.3336546 10.343687 2.3418103e-38
6.0199571 -1.1033636 9.966526 2.341811e-38
7.0072618 -1.387738 10.686896 2.3418098e-38
5.4565115 -1.2046332 9.9489975 2.341811e-38
5.5597506 -1.4063511 10.938808 2.3418094e-38
4.4950829 -1.3019688 10.38798 2.3418103e-38
4.511332 -1.3224121 10.42787 2.3418102e-38
4.7453542 -1.5355606 11.208111 2.3418089e-38
5.4480371 -1.5139211 11.079044 2.3418091e-38
7.1830559 -1.6753675 11.775511 2.341808e-38
7.3545341 -1.5615647 11.231291 2.3418088e-38
5.796854 -1.4130769 10.920657 2.3418094e-38
5.1736245 -1.1501697 9.7329254 2.3418115e-38
5.9114537 -1.0929356 9.9402075 2.341811e-38
5.742794 -1.4155055 10.857513 2.3418095e-38
4.6929469 -1.3108443 10.488838 2.3418102e-38
6.6371098 -1.2138211 10.243731 2.3418106e-38
4.0404668 -1.2809091 10.197056 2.3418106e-38
5.5835266 -1.2287431 10.195073 2.3418106e-38
3.9307096 -1.2997842 10.366927 2.3418103e-38
6.0406775 -1.0956019 10.264913 2.3418105e-38
4.8695664 -1.3174263 10.398131 2.3418103e-38
4.6072564 -1.36944 10.558026 2.3418101e-38
7.0594807 -1.4427724 10.865907 2.3418095e-38
3.9869344 -1.4619025 10.981964 2.3418092e-38
5.658639 -1.1566685 9.954524 2.341811e-38
6.5233727 -1.4354032 10.999821 2.3418092e-38
5.0479646 -1.2118783 10.025296 2.3418109e-38
4.1092935 -1.2631366 10.271871 2.3418105e-38
4.4796996 -1.6933467 11.472792 2.3418084e-38
4.1733737 -1.2981086 10.531237 2.3418101e-38
2.4225821 -1.4856622 11.087107 2.3418091e-38
5.6769342 -1.0514269 9.9088402 2.3418112e-38
6.9504113 -1.7311996 10.14136 2.3418108e-38
4.8130398 -1.3722631 10.382991 2.3418103e-38
4.1737318 -1.6303625 10.805853 2.3418096e-38
6.8850732 -1.0801213 9.9308281 2.3418112e-38
7.4502096 -1.6376207 11.462819 2.3418084e-38
7.3088641 -1.6538171 11.469335 2.3418084e-38
6.4322996 -1.7883455 12.116363 2.3418073e-38
3.7148578 -2.1631358 13.486208 2.3418769e-38
6.4344921 -1.4533191 11.149728 2.3418089e-38
2.6633358 -1.624723 11.53665 2.3418082e-38
1.9284093 -1.6874832 12.473828 2.3418067e-38
1.7751361 -1.8716115 12.813923 2.3418061e-38
2.107806 -1.9883964 12.992795 2.3418057e-38
2.8213854 -2.21085 13.945537 2.3420921e-38
4.3600125 -1.3474423 10.427878 2.3418102e-38
4.9596462 -1.5040563 10.63887 2.3418099e-38
5.3261194 -1.1789076 9.7992392 2.3418113e-38
4.7370644 -1.394848 10.550018 2.3418101e-38
6.6271434 -1.3325543 10.666616 2.3418098e-38
4.0223689 -1.3215874 10.546432 2.3418101e-38
5.2242393 -1.7136824 11.743554 2.341808e-38
5.2251625 -1.511306 10.917137 2.3418094e-38
6.6274571 -1.7948124 11.828993 2.3418078e-38
5.4358697 -1.52232 11.03982 2.3418092e-38
4.6068711 -1.2492374 10.179825 2.3418106e-38
4.408771 -1.2637159 10.119496 2.3418108e-38
4.0469446 -2.2907166 13.850656 2.3420204e-38
7.5207782 -1.6418835 11.386424 2.3418085e-38
6.6290102 -1.166087 9.6029997 2.3418117e-38
5.2865825 -1.257604 10.338729 2.3418103e-38
4.5771341 -1.6559778 11.613697 2.3418082e-38
5.3373513 -1.2768036 10.287096 2.3418105e-38
2.3659947 -1.2551565 10.670478 2.3418098e-38
4.1125903 -1.4971241 11.026667 2.3418092e-38
3.8663399 -1.9774621 8.7871971 2.3418131e-38
4.1071715 -1.6958857 11.897124 2.3418077e-38
4.242147 -1.7745516 12.147259 2.3418073e-38
4.8779793 -1.2739395 10.221931 2.3418106e-38
6.0477114 -1.660024 11.615011 2.3418082e-38
5.4656143 -1.2748935 10.254477 2.3418105e-38
5.5877485 -1.4080704 10.902061 2.3418094e-38
4.21593 -1.2246603 10.191304 2.3418106e-38
3.9949846 -1.9625854 12.426554 2.3418067e-38
5.646503 -1.2332995 10.380611 2.3418103e-38
4.2483983 -2.0335031 13.10032 2.3418056e-38
3.9193571 -1.8216385 12.470798 2.3418067e-38
5.8460517 -1.56567 11.208274 2.3418089e-38
5.4312139 -1.5490224 11.141861 2.3418089e-38
5.5446076 -1.7153739 11.819167 2.3418078e-38
4.162468 -1.3767265 10.587903 2.3418099e-38
4.410213 -1.782082 12.409257 2.3418068e-38
4.92382 -3.0967414 16.054369 2.3430248e-38
1.9492285 -1.2554872 10.508753 2.3418101e-38
2.4354951 -1.8051476 12.630618 2.3418064e-38
3.7701967 -2.2873862 14.157681 2.3421639e-38
3.9908397 -2.0670328 8.7899714 2.3418131e-38
6.2601376 -1.4350227 11.037922 2.3418092e-38
6.9479852 -1.0754509 9.5151749 2.3418119e-38
5.6717906 -1.1625415 9.9939518 2.341811e-38
4.8161693 -1.5501684 11.079165 2.3418091e-38
0.091584012 -2.9482484 16.494133 2.3432042e-38
4.9381914 -1.5276121 11.124603 2.3418091e-38
5.1041303 -1.8146645 11.505095 2.3418084e-38
4.6716557 -1.6737994 11.630851 2.3418081e-38
5.1141186 -1.3825849 10.613688 2.3418099e-38
6.2556009 -1.1628014 9.396944 2.341812e-38
5.005425 -1.4649123 10.568355 2.3418101e-38
5.5342584 -1.974512 11.706585 2.341808e-38
6.4114122 -1.1302345 10.054569 2.3418109e-38
6.2028699 -1.3370148 10.815446 2.3418095e-38
1.5019398 -4.2345314 20.386396 2.344962e-38
6.3989 -1.2915769 10.580719 2.3418099e-38
5.6717067 -1.3750322 10.713666 2.3418098e-38
5.4785337 -1.1895987 10.049593 2.3418109e-38
6.4281235 -1.7907387 12.110798 2.3418073e-38
5.3554215 -1.3455123 10.531379 2.3418101e-38
6.117135 -1.9104371 12.417785 2.3418068e-38
3.2559826 -1.9183719 12.673657 2.3418063e-38
2.1177719 -1.786036 12.613142 2.3418064e-38
4.7821312 -1.2406329 10.214493 2.3418106e-38
5.9140096 -1.3950257 10.944715 2.3418094e-38
4.4105949 -1.2483518 10.154563 2.3418108e-38
4.2876382 -1.6101292 11.300594 2.3418087e-38
4.640111 -2.3123202 13.505911 2.3418769e-38
4.7709775 -1.6866298 11.769755 2.341808e-38
-3.2478306 -3.2107387 18.985506 2.3443163e-38
4.9390626 -2.9414668 10.589825 2.3418099e-38
5.4093046 -1.2893981 10.469583 2.3418102e-38
6.6060324 -1.1751072 9.8714533 2.3418112e-38
4.966392 -1.4021121 10.540148 2.3418101e-38
4.1086187 -1.389538 10.716285 2.3418098e-38
1.4240967 -1.5306027 12.055445 2.3418074e-38
6.0421205 -1.1182849 10.226423 2.3418106e-38
6.4172177 -1.0948855 9.6153431 2.3418116e-38
4.3860335 -3.3729224 17.052263 2.3434553e-38
2.5175166 -1.6411422 11.433207 2.3418085e-38
4.7525935 -1.3546392 10.503777 2.3418101e-38
6.03055 -1.189543 10.42728 2.3418102e-38
4.3374228 -1.5155228 11.616886 2.3418081e-38
5.4633584 -1.7329707 11.769601 2.341808e-38
6.8022161 -3.1869578 16.311256 2.3431325e-38
4.6522999 -1.4165512 10.727202 2.3418098e-38
6.0562911 -1.6560296 11.636842 2.3418081e-38
6.5037489 -1.5027742 11.285726 2.3418088e-38
6.2301736 -1.5689802 11.45134 2.3418085e-38
5.8674178 -1.3418443 10.712665 2.3418098e-38
4.6721625 -2.3023739 13.995302 2.3420921e-38
6.9487805 -2.0795319 13.031694 2.3418057e-38
8.1994267 -2.2263315 13.208708 2.3418054e-38
5.8514066 -1.0635998 9.8273392 2.3418113e-38
6.0364246 -1.4274348 10.923647 2.3418094e-38
6.0712967 -1.469581 11.128097 2.3418091e-38
3.8748319 -2.0295644 8.7772598 2.3418131e-38
6.9618964 -2.5773642 14.053213 2.342128e-38
4.9051757 -1.3346796 10.454481 2.3418102e-38
4.5498304 -1.3342776 10.604591 2.3418099e-38
4.2457457 -1.9388759 12.575279 2.3418066e-38
5.519938 -1.6675581 11.594816 2.3418082e-38
5.9932356 -1.1876317 10.293915 2.3418105e-38
4.4146299 -1.4662971 10.819264 2.3418095e-38
5.3933372 -1.5341265 10.944823 2.3418094e-38
4.306788 -1.2913159 10.570202 2.3418101e-38
6.2970409 -1.9099606 12.208658 2.3418071e-38
7.2163348 -1.1965251 9.7016735 2.3418115e-38
7.5712476 -1.8680362 12.420471 2.3418067e-38
5.7554059 -2.0596452 13.162936 2.3418054e-38
5.4216785 -1.1381178 9.831275 2.3418113e-38
4.8578887 -2.0612814 13.4258 2.341841e-38
5.9320955 -3.7278976 12.295678 2.341807e-38
4.5449114 -1.9024143 12.887504 2.341806e-38
4.7502952 -1.8952675 12.636024 2.3418064e-38
7.111352 -1.8040326 12.195644 2.3418071e-38
4.3946295 -1.2508464 10.314262 2.3418105e-38
3.8643622 -1.8195374 8.82971 2.341813e-38
5.5026526 -1.5049473 11.10822 2.3418091e-38
5.4370756 -1.3686461 10.714403 2.3418098e-38
1.4118065 -1.9525906 12.79443 2.3418061e-38
8.100131 -3.1857932 15.91177 2.3429531e-38
7.1559005 -2.031215 12.543853 2.3418066e-38
5.6939821 -1.8542116 12.245648 2.3418071e-38
4.8644538 -2.6626406 10.597426 2.3418099e-38
5.9830155 -3.4991992 12.174674 2.3418073e-38
6.2376337 -4.2455988 12.882136 2.341806e-38
3.9265528 -1.290192 10.380282 2.3418103e-38
5.4311743 -1.5691004 11.26158 2.3418088e-38
5.172358 -1.2042333 10.080446 2.3418109e-38
5.0974832 -1.3723624 10.408661 2.3418103e-38
5.4809852 -1.3499491 10.587936 2.3418099e-38
2.0663261 -1.5860556 11.45881 2.3418084e-38
4.9984679 -1.3458825 10.415199 2.3418102e-38
5.0432758 -1.3710504 10.49386 2.3418101e-38
5.8947105 -1.1384832 10.23953 2.3418106e-38
4.564445 -1.4765342 11.02077 2.3418092e-38
4.2419791 -1.5530133 11.317454 2.3418087e-38
4.9994965 -1.4716914 10.749638 2.3418096e-38
6.6689868 -1.2716484 10.628171 2.3418099e-38
4.038702 -1.5479048 11.255284 2.3418088e-38
3.5381386 -1.6972456 11.725211 2.341808e-38
2.1794391 -1.6652126 11.199759 2.3418089e-38
5.075706 -1.4183227 10.876249 2.3418095e-38
4.516623 -1.4152442 10.763732 2.3418096e-38
3.9522688 -1.383893 10.756154 2.3418096e-38
3.8830028 -1.3820665 10.314923 2.3418105e-38
3.9327269 -1.2927597 10.451491 2.3418102e-38
3.7377012 -1.7616377 11.927815 2.3418077e-38
5.3596435 -1.3434999 10.516854 2.3418101e-38
4.7520561 -1.5976255 11.508643 2.3418084e-38
6.596992 -1.289856 10.355376 2.3418103e-38
4.0012536 -2.121161 8.7946682 2.3418131e-38
3.964011 -2.1133401 8.8115721 2.341813e-38
4.8896084 -1.5059433 10.666903 2.3418098e-38
1.625527 -1.6227243 12.08866 2.3418074e-38
3.6708794 -1.7061245 12.282015 2.341807e-38
5.0002265 -1.305895 10.321662 2.3418105e-38
5.5429316 -1.4764614 10.970337 2.3418094e-38
5.5938382 -1.2831223 10.586202 2.3418099e-38
6.2019591 -1.2793652 10.667231 2.3418098e-38
4.9005828 -1.3521128 10.488842 2.3418102e-38
5.7723622 -1.3568339 10.667442 2.3418098e-38
4.8593607 -1.4209968 10.618513 2.3418099e-38
5.3546572 -1.3128159 10.534283 2.3418101e-38
3.8322296 -1.3530461 10.557032 2.3418101e-38
4.1125684 -1.6841614 11.980905 2.3418075e-38
4.7797031 -1.3268136 10.391564 2.3418103e-38
6.1859841 -1.1023275 10.079577 2.3418109e-38
4.6023226 -1.3375332 10.518289 2.3418101e-38
6.8034787 -1.250195 10.319438 2.3418105e-38
6.7161112 -1.2923882 10.367319 2.3418103e-38
4.1864905 -1.2724174 10.635423 2.3418099e-38
3.8685346 -1.3789977 10.533598 2.3418101e-38
4.3177891 -1.3919109 10.832972 2.3418095e-38
4.4958501 -1.4556433 11.163362 2.3418089e-38
4.9800553 -1.3789119 10.314591 2.3418105e-38
6.3500757 -1.3253795 10.565095 2.3418101e-38
6.5190454 -1.1490692 10.207025 2.3418106e-38
1.1292762 -2.0933058 12.861348 2.341806e-38
6.4624863 -1.1494272 10.15402 2.3418108e-38
5.7275991 -1.9102978 12.32021 2.341807e-38
4.8943033 -1.4665817 10.753968 2.3418096e-38
5.1422086 -1.4950118 10.927748 2.3418094e-38
5.0259237 -1.2327601 10.167687 2.3418108e-38
4.125308 -1.6393452 11.851151 2.3418078e-38
4.0395122 -1.5584381 11.256721 2.3418088e-38
4.431324 -1.5215514 11.206162 2.3418089e-38
1.6220843 -2.0093179 12.855599 2.341806e-38
3.8618772 -1.3667284 10.563508 2.3418101e-38
3.8096626 -1.3770422 10.641009 2.3418099e-38
3.4962904 -1.7991749 12.49734 2.3418067e-38
5.0597758 -1.4271828 10.667521 2.3418098e-38
6.0248542 -1.045682 9.6473446 2.3418116e-38
5.7248297 -1.2903082 10.428346 2.3418102e-38
5.3760252 -1.3940605 10.720312 2.3418098e-38
3.8413844 -1.4685893 11.02159 2.3418092e-38
4.7310557 -1.2949197 10.363979 2.3418103e-38
4.6986184 -1.303105 10.505905 2.3418101e-38
6.2715788 -1.1406 10.22678 2.3418106e-38
6.2343507 -1.2283535 10.433668 2.3418102e-38
6.0452132 -1.741392 11.959537 2.3418075e-38
3.1638732 -2.1237035 13.503384 2.3418769e-38
3.006959 -1.6729743 11.949511 2.3418075e-38
7.7786961 -1.7979841 12.044255 2.3418074e-38
4.1303825 -1.2356046 10.239937 2.3418106e-38
5.9636202 -1.2642307 10.578601 2.3418099e-38
4.8267317 -1.3415927 10.45436 2.3418102e-38
5.0703344 -1.4161757 10.696987 2.3418098e-38
7.3346634 -1.4131718 10.940042 2.3418094e-38
4.7036557 -1.1966504 9.998539 2.341811e-38
6.0954394 -1.7987654 12.092976 2.3418074e-38
4.6043797 -1.2886029 10.392849 2.3418103e-38
5.8583899 -1.2094313 10.425266 2.3418102e-38
5.8944573 -1.1569437 10.207334 2.3418106e-38
3.5866499 -2.2450771 14.413355 2.3422715e-38
5.1423626 -1.4984062 10.91934 2.3418094e-38
3.5020399 -2.1534474 13.489676 2.3418769e-38
6.6551557 -1.6146097 11.721378 2.341808e-38
4.0690017 -2.0462866 13.133563 2.3418056e-38
4.0032463 -1.4090085 10.923037 2.3418094e-38
4.181426 -1.2706075 10.558504 2.3418101e-38
4.2205524 -1.2250975 10.06836 2.3418109e-38
6.3313789 -1.0967617 9.7887115 2.3418113e-38
6.4721947 -1.2151831 10.315973 2.3418105e-38
5.4616947 -1.2539485 10.166446 2.3418108e-38
3.7850106 -2.2862718 13.939682 2.3420563e-38
5.6534581 -1.2650269 10.383394 2.3418103e-38
3.5646164 -2.6292574 15.308973 2.342702e-38
5.0666747 -1.5013815 11.007887 2.3418092e-38
4.0023904 -1.4890217 10.988219 2.3418092e-38
3.1294608 -2.398566 14.670852 2.342415e-38
5.7799945 -1.1582896 9.8940516 2.3418112e-38
4.0495934 -2.0248137 13.375202 2.3418052e-38
4.4199138 -1.3408957 10.65936 2.3418098e-38
4.1064014 -1.3834451 10.728211 2.3418098e-38
1.1737299 -1.9009888 12.620133 2.3418064e-38
4.4522419 -1.7022455 11.803597 2.3418078e-38
4.1802979 -1.238126 10.546581 2.3418101e-38
4.1914544 -1.2952489 10.472715 2.3418102e-38
4.0321007 -1.3988146 10.915449 2.3418094e-38
4.1090522 -1.4765592 11.094007 2.3418091e-38
4.3459873 -1.3665571 10.705238 2.3418098e-38
4.227035 -1.7062278 12.593318 2.3418064e-38
4.5384164 -1.6066101 11.379152 2.3418085e-38
4.4366102 -2.3994806 14.183972 2.3421639e-38
4.8483481 -1.6653523 11.438933 2.3418085e-38
5.808022 -1.8966911 12.308416 2.341807e-38
4.1849418 -3.2685068 17.114956 2.3434912e-38
4.1702452 -1.5350114 11.140889 2.3418089e-38
5.8787451 -1.8519518 12.189493 2.3418071e-38
4.3424454 -1.3843688 10.671913 2.3418098e-38
3.5674229 -1.9707271 13.44148 2.341841e-38
6.5559292 -1.402665 10.838984 2.3418095e-38
4.8888288 -3.2642338 10.320642 2.3418105e-38
4.7887707 -1.4892122 10.827755 2.3418095e-38
5.0608511 -1.5808845 10.913529 2.3418094e-38
3.6271713 -2.0064096 13.025048 2.3418057e-38
7.4361076 -1.4368236 11.171619 2.3418089e-38
0.35282391 -2.4894426 15.142896 2.3425944e-38
7.5899506 -1.9509289 12.766759 2.3418061e-38
7.180655 -2.6981616 9.9867678 2.341811e-38
5.154459 -2.6812172 15.190606 2.3426302e-38
6.456583 -1.172025 10.017076 2.3418109e-38
6.0228329 -1.182345 10.423913 2.3418102e-38
7.5937357 -1.9556364 12.767684 2.3418061e-38
6.4685135 -1.5607142 11.504872 2.3418084e-38
6.3036098 -1.4167235 10.971525 2.3418094e-38
5.1108375 -1.2091912 9.9679928 2.341811e-38
5.6536803 -1.5320284 11.191278 2.3418089e-38
4.4183435 -2.4183097 14.398709 2.3422715e-38
5.9936399 -1.5314709 11.250055 2.3418088e-38
4.0929475 -1.3296858 10.62636 2.3418099e-38
5.420186 -1.7640532 11.906979 2.3418077e-38
5.3387747 -1.5489902 11.114166 2.3418091e-38
2.1437027 -1.655014 11.890598 2.3418077e-38
2.0457416 -1.7300503 12.218407 2.3418071e-38
4.8336706 -2.7134254 15.023186 2.3425585e-38
4.2267165 -2.636584 15.098171 2.3425944e-38
5.3833132 -1.179126 9.9808302 2.341811e-38
6.5630674 -1.3697768 10.794292 2.3418096e-38
4.6974058 -2.1428881 13.502007 2.3418769e-38
3.5812924 -2.0526183 13.132029 2.3418056e-38
4.2537575 -1.210072 10.036554 2.3418109e-38
4.7894535 -1.929262 13.009616 2.3418057e-38
4.3541336 -1.288872 10.554252 2.3418101e-38
4.8390422 -2.7180436 15.182943 2.3426302e-38
6.747261 -1.2737932 10.259185 2.3418105e-38
4.5001745 -1.285081 10.346293 2.3418103e-38
5.6090474 -1.3209857 10.545877 2.3418101e-38
4.4910984 -1.3519495 10.603913 2.3418099e-38
5.0216341 -2.7385087 14.967383 2.3425226e-38
8.9381924 -1.964637 12.735833 2.3418063e-38
6.8375101 -1.7872641 12.148005 2.3418073e-38
6.6648216 -1.2319578 10.324531 2.3418105e-38
5.5167155 -1.5260264 11.121901 2.3418091e-38
4.489861 -1.5645427 11.408394 2.3418085e-38
4.0485177 -1.2221357 10.199631 2.3418106e-38
2.1403096 -1.8292629 12.526734 2.3418066e-38
2.1839378 -1.6123147 11.488693 2.3418084e-38
4.8282452 -1.6388476 11.100193 2.3418091e-38
4.0042815 -1.7337706 11.98254 2.3418075e-38
5.8980718 -2.3315756 14.215548 2.3421998e-38
6.0315757 -1.5519121 11.239799 2.3418088e-38
4.8622494 -1.4277303 10.579838 2.3418099e-38
6.6906519 -1.1213783 9.8545313 2.3418112e-38
4.1123672 -2.1534076 13.330237 2.3418052e-38
6.0472279 -1.2395667 10.504117 2.3418101e-38
5.2164245 -1.2267168 10.185286 2.3418106e-38
7.1492677 -2.083492 12.943422 2.3418059e-38
6.3471241 -2.3511028 13.063618 2.3418056e-38
5.6000967 -1.5445092 11.172383 2.3418089e-38
4.6051331 -1.8257115 12.56779 2.3418066e-38
4.9368958 -1.2718869 10.245987 2.3418106e-38
5.8586426 -1.5547284 11.243607 2.3418088e-38
5.9128914 -1.618854 11.439776 2.3418085e-38
5.5115662 -1.6849724 11.616923 2.3418081e-38
6.7437515 -1.2772852 10.256533 2.3418105e-38
3.1477714 -1.8605062 12.509414 2.3418066e-38
4.6990151 -1.7207092 11.824077 2.3418078e-38
7.1155157 -1.1553389 9.8249149 2.3418113e-38
5.862103 -1.4969369 11.139422 2.3418089e-38
5.4637566 -1.4605883 10.985554 2.3418092e-38
4.537487 -1.9354846 12.977799 2.3418059e-38
2.1724045 -3.3234398 17.553141 2.3436706e-38
3.0495341 -2.1826696 13.617325 2.3419128e-38
5.2100434 -1.5063257 10.958825 2.3418094e-38
5.129796 -1.2392114 10.222907 2.3418106e-38
6.5306106 -1.6224601 11.793403 2.3418078e-38
5.8801908 -1.8474412 12.18753 2.3418071e-38
3.2626615 -4.0128212 20.29306 2.3449261e-38
4.2997351 -1.9169852 12.771434 2.3418061e-38
6.4016232 -1.1630774 10.200135 2.3418106e-38
6.2735925 -1.5053539 11.216946 2.3418088e-38
1.9682769 -1.681589 12.060261 2.3418074e-38
6.5949049 -1.1904738 9.6919661 2.3418115e-38
4.4523854 -2.4001434 14.327456 2.3422356e-38
6.1428432 -1.3667378 10.904299 2.3418094e-38
8.9650774 -2.9435444 15.181267 2.3426302e-38
9.143713 -2.5905917 14.131411 2.3421639e-38
4.4778175 -2.1749175 13.550813 2.3419128e-38
7.2249284 -1.7054837 11.884725 2.3418077e-38
4.219409 -1.2172734 10.085426 2.3418109e-38
6.4697056 -1.0690303 9.4504118 2.3418119e-38
5.3335133 -1.2075344 10.178473 2.3418106e-38
6.1276579 -1.283535 10.686081 2.3418098e-38
8.1325197 -2.064575 13.140873 2.3418056e-38
8.583519 -2.180732 13.076509 2.3418056e-38
8.0494022 -2.5301273 11.007883 2.3418092e-38
5.2417445 -1.579004 11.36029 2.3418087e-38
3.307879 -1.8017614 12.423127 2.3418067e-38
8.2409735 -2.2614963 13.663778 2.3419486e-38
6.9941187 -2.6469946 14.12157 2.3421639e-38
3.8447285 -1.3465227 10.60338 2.3418099e-38
5.9993014 -4.0511055 12.266354 2.341807e-38
7.4998331 -3.7161427 12.947924 2.3418059e-38
8.4034662 -3.1583557 15.153624 2.3426302e-38
1.3165969 -5.1223245 24.309715 2.3467198e-38
5.0342011 -1.2658317 10.271536 2.3418105e-38
4.4244475 -1.2673372 10.260889 2.3418105e-38
5.6769638 -1.3704852 10.680399 2.3418098e-38
5.9565377 -1.2735579 10.492706 2.3418102e-38
3.1670833 -1.7647415 12.21256 2.3418071e-38
3.586905 -1.6196498 11.451626 2.3418085e-38
4.0207515 -1.4519529 10.794474 2.3418096e-38
3.827117 -1.5874044 11.655789 2.3418081e-38
4.6335912 -1.5610528 11.399875 2.3418085e-38
4.4743962 -1.4560496 10.786977 2.3418096e-38
3.5453532 -1.6906769 11.736085 2.341808e-38
3.7659779 -1.3656691 10.483634 2.3418102e-38
4.4305878 -1.537045 11.157489 2.3418089e-38
4.339294 -1.5376523 11.117474 2.3418091e-38
3.8042405 -1.8556927 12.210988 2.3418071e-38
4.1080451 -1.6960812 11.904442 2.3418077e-38
4.0764995 -1.3630109 10.631005 2.3418099e-38
4.1620369 -1.5225466 11.186901 2.3418089e-38
3.0632086 -1.692199 12.043448 2.3418074e-38
3.5427423 -1.6957564 11.725628 2.341808e-38
4.9603472 -1.4523766 10.696185 2.3418098e-38
3.9487941 -2.0855231 8.742239 2.3418131e-38
4.934557 -1.8167361 11.063669 2.3418091e-38
3.3321393 -1.820069 12.370145 2.3418068e-38
4.3150868 -1.5027616 10.896299 2.3418094e-38
2.9723217 -1.9320922 12.661559 2.3418063e-38
2.44947 -1.5601457 10.984812 2.3418092e-38
3.9316828 -1.3826424 10.507397 2.3418101e-38
2.5237625 -1.5726395 11.138281 2.3418089e-38
1.384003 -2.0316947 12.836438 2.341806e-38
5.8434348 -1.1022087 9.9968529 2.341811e-38
4.6475034 -1.4432163 10.674119 2.3418098e-38
2.9657536 -1.9361303 12.711108 2.3418063e-38
3.8437958 -1.3529267 10.592933 2.3418099e-38
6.1784573 -1.1829097 10.055 2.3418109e-38
3.4672489 -1.6733729 11.503078 2.3418084e-38
3.4142711 -1.7108029 12.06995 2.3418074e-38
5.3428216 -1.399235 10.677444 2.3418098e-38
6.6705337 -1.359344 9.8950996 2.3418112e-38
4.5610704 -1.4655756 11.04501 2.3418092e-38
4.0315905 -1.4323326 10.842211 2.3418095e-38
3.0740466 -1.8178278 11.612166 2.3418082e-38
4.9682794 -1.2507389 10.570504 2.3418101e-38
4.2437878 -1.5413831 11.012164 2.3418092e-38
6.1976666 -1.0986849 9.6018953 2.3418117e-38
4.6485934 -1.3655536 10.574917 2.3418099e-38
5.4875784 -1.2529587 10.284948 2.3418105e-38
5.4524827 -1.3956558 10.666144 2.3418098e-38
5.7400131 -1.2803794 10.451911 2.3418102e-38
3.9346642 -1.552516 11.360027 2.3418087e-38
3.3468676 -1.5767931 11.293836 2.3418088e-38
4.1537538 -1.3541261 10.629426 2.3418099e-38
2.5383434 -1.556795 11.062803 2.3418091e-38
6.1124849 -1.0999299 9.761692 2.3418115e-38
3.9156926 -1.8206685 12.166657 2.3418073e-38
7.7836595 -1.7819145 11.735723 2.341808e-38
5.540576 -1.1671029 9.951004 2.341811e-38
6.5037713 -1.6209258 11.603712 2.3418082e-38
6.0475831 -1.8308113 12.210558 2.3418071e-38
6.5925889 -1.1737871 9.9891338 2.341811e-38
5.5759745 -1.3761674 10.717505 2.3418098e-38
4.7916608 -1.2884469 10.367901 2.3418103e-38
4.9234161 -1.2919375 10.202369 2.3418106e-38
5.915616 -1.1460873 10.383941 2.3418103e-38
4.7690849 -1.3550012 10.523561 2.3418101e-38
4.3704324 -1.3570149 10.706081 2.3418098e-38
6.6089864 -1.1987333 10.181047 2.3418106e-38
2.0763888 -1.7395148 12.155226 2.3418073e-38
4.2543201 -1.4597266 10.998448 2.3418092e-38
4.2174172 -1.5302312 11.080764 2.3418091e-38
4.1245465 -1.5571114 11.164868 2.3418089e-38
3.2748849 -1.5769694 11.253319 2.3418088e-38
3.97192 -1.6619161 11.794576 2.3418078e-38
5.9571042 -1.2314889 10.488926 2.3418102e-38
3.5594649 -1.5778872 11.267053 2.3418088e-38
5.7804723 -1.0968456 9.9374313 2.341811e-38
2.0065396 -1.6107328 11.282383 2.3418088e-38
5.6269593 -1.9246912 12.704198 2.3418063e-38
3.2071524 -1.9255749 12.601902 2.3418064e-38
5.0584302 -1.4622328 10.792796 2.3418096e-38
5.8423786 -1.6652286 11.566402 2.3418082e-38
7.3454947 -1.6878923 11.553298 2.3418082e-38
6.4892793 -1.1929781 10.397369 2.3418103e-38
5.0803809 -1.2405416 10.238963 2.3418106e-38
6.7447896 -1.2573916 10.194364 2.3418106e-38
2.9287705 -2.4008152 14.485211 2.3423074e-38
4.3989477 -1.7100115 11.813131 2.3418078e-38
5.7288542 -1.5247531 11.12468 2.3418091e-38
3.9819956 -1.3666369 10.605125 2.3418099e-38
5.6257339 -1.1360172 9.9332514 2.341811e-38
4.0118275 -1.7062564 12.178385 2.3418073e-38
4.2558231 -1.2426383 10.295926 2.3418105e-38
5.8878646 -1.846684 12.187616 2.3418071e-38
5.4722586 -1.8097572 12.154946 2.3418073e-38
5.6703801 -1.9145179 12.865746 2.341806e-38
4.4687524 -1.3083704 10.390936 2.3418103e-38
3.5065033 -1.9063203 12.653125 2.3418064e-38
6.2337546 -1.1194431 10.029024 2.3418109e-38
7.6518741 -1.5612139 11.217224 2.3418088e-38
5.9957824 -1.1291921 10.195187 2.3418106e-38
5.9899707 -1.1232729 10.326085 2.3418105e-38
7.1633091 -1.5455 11.241493 2.3418088e-38
3.3993807 -2.3364079 14.746523 2.3424509e-38
4.2396779 -2.2618377 13.584896 2.3419128e-38
3.0508463 -2.3007288 14.270765 2.3422356e-38
5.0894332 -1.6199455 11.424415 2.3418085e-38
3.5141432 -1.6139497 11.559345 2.3418082e-38
3.6986809 -1.6124678 11.560513 2.3418082e-38
3.6434746 -1.716518 11.823975 2.3418078e-38
4.0844903 -1.3348442 10.534726 2.3418101e-38
3.6539712 -1.9339871 12.651511 2.3418064e-38
3.7942777 -1.9503715 12.880221 2.341806e-38
5.6215677 -1.1761991 10.130679 2.3418108e-38
3.8921287 -1.5354536 11.248922 2.3418088e-38
3.8003452 -1.5114697 11.159263 2.3418089e-38
4.7010612 -1.3434064 10.419936 2.3418102e-38
3.4320729 -2.0311813 12.666518 2.3418063e-38
4.2227812 -1.3147439 10.683104 2.3418098e-38
3.6440375 -2.1825349 13.533533 2.3418769e-38
6.7834024 -1.5114164 11.190407 2.3418089e-38
7.2047434 -1.2796016 10.706083 2.3418098e-38
3.601685 -1.7717785 12.002361 2.3418075e-38
3.5808108 -2.1623619 13.979234 2.3420921e-38
4.9066663 -2.9188929 10.425205 2.3418102e-38
6.2550678 -1.1305217 9.8009949 2.3418113e-38
3.8373554 -2.2906194 13.433516 2.341841e-38
6.6938176 -1.3812337 10.832417 2.3418095e-38
7.7605567 -1.6516104 11.273963 2.3418088e-38
3.9606111 -1.523942 11.229176 2.3418088e-38
3.8916924 -1.7653407 12.726295 2.3418063e-38
4.3287296 -1.4128481 10.830843 2.3418095e-38
8.6288528 -2.2503247 13.208607 2.3418054e-38
7.3779998 -2.0161467 13.040273 2.3418057e-38
2.0120931 -1.7165954 12.173588 2.3418073e-38
6.1291265 -1.3132174 10.725288 2.3418098e-38
6.1913323 -1.1197889 9.8240147 2.3418113e-38
5.6280084 -1.5940636 11.301443 2.3418087e-38
8.355669 -2.0572309 12.934542 2.3418059e-38
4.4271731 -1.6953009 11.7569 2.341808e-38
6.7722621 -1.3978567 10.885498 2.3418095e-38
5.4921789 -1.3443525 10.597157 2.3418099e-38
5.2801061 -1.2588854 10.336518 2.3418103e-38
5.3560157 -1.5870633 11.329517 2.3418087e-38
5.2371726 -1.7140231 11.636711 2.3418081e-38
4.0209866 -1.3176968 10.55668 2.3418101e-38
4.3082147 -1.2471393 10.143294 2.3418108e-38
7.2381511 -1.7006123 11.899608 2.3418077e-38
3.0266898 -1.7120196 12.108915 2.3418073e-38
4.8005199 -1.7928834 12.362159 2.3418068e-38
4.027534 -1.2514386 10.265334 2.3418105e-38
4.8994231 -1.3725321 10.545335 2.3418101e-38
5.6036987 -1.6113443 11.363458 2.3418087e-38
7.0868464 -2.1633458 13.364135 2.3418052e-38
6.4440527 -1.1377199 10.248046 2.3418106e-38
4.007803 -1.4281064 10.863634 2.3418095e-38
5.4951 -1.8871586 12.35277 2.3418068e-38
4.2868571 -1.6271927 11.419559 2.3418085e-38
3.6367066 -1.9257827 12.737351 2.3418063e-38
6.6550608 -1.3748692 11.075246 2.3418091e-38
7.628015 -1.6820561 11.574925 2.3418082e-38
4.2763677 -1.3523068 10.71026 2.3418098e-38
3.6546695 -2.2906241 14.197987 2.3421998e-38
5.6230416 -1.1750427 10.148038 2.3418108e-38
6.8622274 -1.7830176 12.194345 2.3418071e-38
5.6070104 -1.6003017 11.269905 2.3418088e-38
4.530086 -1.9112725 12.991655 2.3418057e-38
5.340538 -1.6467918 11.520209 2.3418084e-38
4.243259 -1.3957922 10.803267 2.3418096e-38
3.9988997 -2.0775266 8.7579126 2.3418131e-38
6.2817717 -1.1299498 9.7450695 2.3418115e-38
4.1584821 -2.7599924 15.890199 2.3429531e-38
6.3570495 -2.5749588 14.95511 2.3425226e-38
7.1837168 -1.6477172 11.527686 2.3418084e-38
4.3866315 -1.3052816 10.582747 2.3418099e-38
5.0890789 -1.6269412 11.410752 2.3418085e-38
4.4696755 -1.6535137 11.628613 2.3418081e-38
6.3562088 -1.3533167 10.728636 2.3418098e-38
6.480669 -1.0795844 9.5744038 2.3418117e-38
4.3465838 -1.2632985 10.278098 2.3418105e-38
5.8371725 -1.0851694 9.8949976 2.3418112e-38
4.8643751 -1.3271546 10.375988 2.3418103e-38
3.0022643 -1.6295983 11.551529 2.3418082e-38
5.2651792 -1.6836379 11.913485 2.3418077e-38
6.0642991 -1.1522555 10.009065 2.341811e-38
5.6700816 -1.190767 10.176875 2.3418106e-38
3.0867188 -1.6068491 11.493582 2.3418084e-38
6.778903 -1.8086599 12.039079 2.3418074e-38
6.4491386 -1.3668573 10.82711 2.3418095e-38
4.4186201 -1.8989956 12.949998 2.3418059e-38
2.4512923 -1.4473851 10.886804 2.3418095e-38
6.4873047 -1.5062424 11.289347 2.3418088e-38
4.2589359 -2.042727 13.167028 2.3418054e-38
4.4041138 -1.8056755 11.894629 2.3418077e-38
8.2260437 -2.4161632 13.043352 2.3418057e-38
6.065237 -1.12895 9.9096737 2.3418112e-38
4.9543982 -1.5075324 11.204403 2.3418089e-38
5.4222293 -1.4251965 10.76983 2.3418096e-38
4.7995472 -1.3893114 10.713039 2.3418098e-38
5.4771347 -1.7552109 12.022391 2.3418074e-38
8.8435497 -2.5059907 14.590021 2.3423791e-38
5.0686984 -2.2052643 13.852324 2.3420204e-38
1.505233 -3.6321507 18.882969 2.3442804e-38
5.2401671 -1.6018144 11.354388 2.3418087e-38
6.5337043 -1.2538633 10.303207 2.3418105e-38
6.4728508 -1.6533051 11.765563 2.341808e-38
4.4490695 -1.566184 11.334596 2.3418087e-38
7.0856595 -2.7759821 14.886003 2.3424867e-38
4.7438941 -1.4274961 10.689675 2.3418098e-38
6.1654758 -1.2046956 10.417587 2.3418102e-38
3.1492138 -1.9791414 12.606172 2.3418064e-38
5.8955293 -1.4118992 10.891522 2.3418095e-38
5.8728395 -1.3104072 10.468297 2.3418102e-38
7.7067242 -2.6255598 14.721751 2.342415e-38
5.5416932 -1.7538728 11.905484 2.3418077e-38
5.9839973 -1.6395004 11.564107 2.3418082e-38
7.0860076 -1.8488016 12.162363 2.3418073e-38
8.4328613 -2.5126648 13.625494 2.3419486e-38
6.0412827 -2.9911358 12.41245 2.3418068e-38
8.86199 -2.4487112 14.149385 2.3421639e-38
8.8384666 -2.8111749 14.232697 2.3421998e-38
6.5474062 -1.2387458 10.195951 2.3418106e-38
5.0898933 -1.5229641 11.034389 2.3418092e-38
7.6006188 -2.4546444 14.419212 2.3422715e-38
4.4004669 -5.8642988 17.667601 2.3437423e-38
5.3497472 -1.1958821 10.053725 2.3418109e-38
7.1695161 -1.7883941 11.267366 2.3418088e-38
7.6825237 -3.666857 14.876673 2.3424867e-38
4.3929014 -1.9053503 12.875031 2.341806e-38
4.6100602 -1.3679923 10.563012 2.3418101e-38
5.4176126 -1.8084811 11.794492 2.3418078e-38
3.9165552 -1.3781472 10.699134 2.3418098e-38
3.1491201 -1.4869671 10.981441 2.3418092e-38
3.6328387 -1.5676171 11.256445 2.3418088e-38
2.9507339 -1.9259577 12.71859 2.3418063e-38
4.3632774 -1.4164494 10.801058 2.3418096e-38
3.321346 -1.9194522 12.662965 2.3418063e-38
4.1251063 -1.646798 11.461445 2.3418084e-38
4.3029585 -1.377656 10.755809 2.3418096e-38
3.5832374 -1.4784914 11.073978 2.3418091e-38
3.6757953 -1.5091525 11.298086 2.3418087e-38
3.2243233 -1.5599054 11.248461 2.3418088e-38
2.9545236 -2.0344133 13.024689 2.3418057e-38
5.5711737 -1.3027629 10.68871 2.3418098e-38
5.2202897 -1.7216153 11.706366 2.341808e-38
3.2675283 -1.8711643 12.437646 2.3418067e-38
4.2666631 -1.4818096 10.948988 2.3418094e-38
4.1212115 -1.7236789 11.793435 2.3418078e-38
4.2341051 -1.5289941 11.048824 2.3418092e-38
3.3850558 -1.5357515 11.651359 2.3418081e-38
5.0992007 -1.4910293 10.7779 2.3418096e-38
4.1399164 -1.427433 10.791615 2.3418096e-38
5.5716195 -1.2660044 10.696848 2.3418098e-38
3.4116287 -1.6144222 11.689581 2.3418081e-38
4.6044502 -1.5791821 11.343884 2.3418087e-38
2.8657718 -2.0720513 13.146778 2.3418054e-38
4.9903502 -1.5211173 11.020405 2.3418092e-38
3.8959079 -1.5455124 11.321242 2.3418087e-38
3.856518 -1.4473633 10.884266 2.3418095e-38
3.2736063 -1.6358079 11.604197 2.3418082e-38
2.9505982 -1.8706806 11.570698 2.3418082e-38
4.8128166 -1.8534563 11.052556 2.3418092e-38
6.2841258 -1.1851002 10.510391 2.3418101e-38
5.6013036 -1.6206179 11.336802 2.3418087e-38
6.0570989 -1.1691294 10.31183 2.3418105e-38
3.7996664 -1.2901551 10.332796 2.3418105e-38
4.4747486 -1.4754843 10.73278 2.3418098e-38
4.2573953 -1.4760491 10.941599 2.3418094e-38
3.5579958 -1.4941701 11.16108 2.3418089e-38
4.6323004 -1.567394 11.356176 2.3418087e-38
5.6095843 -1.4959015 11.042502 2.3418092e-38
6.3172879 -1.0625854 9.9369593 2.341811e-38
4.6623049 -1.4905666 10.866693 2.3418095e-38
5.3960242 -1.3813908 10.565654 2.3418101e-38
5.0426435 -1.3715814 10.484002 2.3418102e-38
5.3462505 -1.6002938 11.287618 2.3418088e-38
4.7068801 -1.4234359 10.673755 2.3418098e-38
6.9194345 -1.4284641 11.00683 2.3418092e-38
5.5697079 -1.3126922 10.537844 2.3418101e-38
5.8892241 -1.227717 10.425021 2.3418102e-38
6.5961704 -1.2246635 10.355508 2.3418103e-38
5.6797853 -1.3175422 10.556536 2.3418101e-38
5.1905999 -1.4247937 10.761253 2.3418096e-38
5.7609849 -1.2607826 10.489404 2.3418102e-38
6.3262115 -1.2318853 10.421211 2.3418102e-38
6.0910168 -1.2276175 10.614196 2.3418099e-38
